14.92963516 6.960812098 1.953160408
26.90122877 9.027185465 5.266250651
25.98212423 9.799222901 4.873370526
15.24157788 7.059097985 2.619816388
24.69926516 8.289717056 3.848606805
24.97842893 9.411217477 3.67968514
25.49934803 10.68862702 3.542891044
14.9716504 6.924563527 1.955868604
26.93999349 8.948330928 5.268440762
26.14031111 9.767385397 4.897397871
15.71567064 7.220198791 2.697486247
24.64290568 8.186766766 3.835893134
24.93479465 9.307518357 3.669033313
26.14570618 10.86537501 3.628047486
15.00275306 6.88315378 1.957163695
27.60432982 9.075057546 5.392889064
28.08035773 10.39422263 5.254866954
15.3088805 6.9765074 2.623977269
24.6867005 8.117305182 3.838815669
24.94557834 9.224447697 3.666438604
26.68516255 10.99367117 3.698206443
15.02108731 6.835859492 1.956810477
27.1383784 8.829708558 5.296541732
27.9650811 10.25411069 5.227382538
24.76416897 8.058672058 3.846999387
24.97283139 9.147531585 3.66630199
26.53419243 10.83637292 3.672659415
15.05104048 6.793828642 1.957988026
26.67399422 8.588209033 5.200742284
27.93993563 10.14775548 5.216838237
24.73415968 7.965070986 3.838523606
25.11625091 9.11276931 3.683235908
25.08614261 10.15531154 3.467902441
15.23133121 6.81903717 1.978711131
26.44352861 8.424556458 5.150743526
27.9672302 10.06065638 5.216146823
25.79520531 10.36604402 4.605273531
24.95076427 7.950420748 3.868334989
27.10836941 9.741546442 3.970973754
25.15492264 10.09344472 3.473113556
26.47112668 8.343980782 5.151108782
27.99703615 9.974476149 5.215974207
25.84613453 10.29452226 4.608705329
25.02032505 7.888113442 3.875349501
25.93885478 9.231516757 3.795490527
25.17194614 10.01072538 3.471207161
25.90710394 11.4082538 3.356449845
26.51443499 8.268290244 5.154575865
27.23521171 9.609001416 5.068526621
25.86841858 10.21155692 4.607071207
25.05007508 7.813082162 3.876226168
25.38218213 8.945760266 3.710002208
25.8438839 10.1862339 3.559541006
25.95472238 11.33428191 3.358098271
26.53685726 8.18603693 5.154028455
26.21664229 9.159288137 4.873716232
25.90146329 10.13286456 4.607398316
25.04745873 7.728026271 3.872134428
28.74013786 10.03022728 4.196302437
25.95816572 10.13937756 3.57098009
26.16980541 11.33273642 3.381411794
26.53081368 8.095115129 5.14800648
26.68396934 9.230798384 4.955304977
25.28669358 9.803016849 4.49267082
25.05685811 7.6468141 3.869942408
24.79616163 8.568542648 3.616593147
25.89017307 10.02138048 3.557380456
26.25463498 11.27394528 3.387887956
27.23513099 8.21876759 5.279754201
27.0886146 9.277823499 5.025139211
25.00260983 9.60475381 4.436941431
25.07546369 7.568475753 3.869211891
25.48031287 8.717541914 3.712460304
25.50219729 9.781349837 3.499931592
26.74685071 11.38824468 3.446878436
28.14018855 8.39777934 5.450186294
26.04518302 8.831263478 4.826526044
24.6520849 9.38340854 4.369608685
25.28247773 10.68883753 4.281242455
25.10141008 7.492358446 3.869650106
24.40352869 8.265599014 3.551862502
26.02627879 9.890874708 3.567675371
25.33801144 10.69668124 3.261076214
26.03760519 8.739719658 4.820130701
26.15309134 9.86298768 4.630278393
25.36800421 10.63337606 4.290180293
25.2703937 7.458438287 3.892154913
24.38650688 8.176519158 3.545717026
25.57008931 9.627832905 3.501075525
25.31849384 10.59704111 3.254364731
26.07270751 8.662592017 4.821686145
24.67777501 9.220229974 4.364052101
25.40598177 10.55777258 4.291105354
25.50018112 7.441287454 3.924012402
24.4161783 8.103224007 3.546399856
25.14134216 9.378431993 3.438415545
25.37014834 10.52730685 3.25683737
27.68603152 9.104394301 5.114852306
24.66246097 9.128380844 4.356370732
25.52778097 10.51666212 4.30620774
25.77287378 7.43513574 3.962445717
24.68938894 8.109893929 3.582452559
25.53750362 9.437062657 3.488619822
25.39222306 10.44526785 3.255542042
27.35980073 8.904193004 5.049512264
24.78575526 9.087654861 4.373204037
25.4757724 10.40392743 4.292029942
26.20939567 7.47404171 4.026014309
24.82249662 8.069329759 3.598157193
25.49834078 9.333779936 3.479341525
25.44254119 10.37481558 3.257896904
27.3785515 8.817494642 5.047956819
26.86191646 9.755490303 4.734219357
26.32360071 10.65605668 4.429339016
28.42980297 8.012995744 4.363293628
24.83770478 7.99010311 3.59679153
25.95113786 9.409344052 3.537171621
27.36042882 8.719101798 5.039659377
27.78569707 9.994600022 4.891601845
26.23787852 10.52778292 4.409459199
27.53080967 7.668517772 4.221689203
25.47473281 8.108872071 3.685420776
25.71569622 9.234810417 3.501202601
26.90724265 7.404432544 5.179392378
27.41241397 8.64311691 5.044326659
27.79020753 9.90003769 4.88702564
25.3262299 10.07189109 4.251037206
27.44261254 7.553303003 4.204591254
25.47964777 8.024429673 3.682553076
25.58597069 9.099701202 3.479722757
26.94596261 7.326232335 5.18249468
27.23570363 8.495624029 5.006989356
25.12260564 9.901756833 4.211740101
27.02654163 7.349661059 4.137369136
25.58832192 7.972446959 3.694707179
24.6679164 8.688033575 3.351225396
25.43302653 10.00872221 3.240706208
27.70586809 8.549100304 5.088578102
25.20072478 9.843327922 4.219753827
27.04991947 7.266966846 4.137515524
24.72372127 7.619931364 3.566474701
24.64668922 8.595653718 3.344743508
25.27025073 9.855238026 3.216097357
28.24161233 8.619608659 5.182093974
27.41397245 9.482592078 4.80531101
25.28332557 9.786296642 4.228537644
27.12850114 7.198914756 4.146137218
24.42196146 7.444962681 3.519633555
24.70107067 8.529711124 3.348556299
25.36057568 9.800931719 3.223750832
26.9221331 9.220081917 4.714117335
25.71452997 9.862597171 4.295574272
27.16002796 7.118160079 4.147598723
24.68559644 7.442635682 3.554320597
24.68770441 8.44041255 3.343218107
28.28925152 8.444750578 5.181229945
27.48752316 9.319589834 4.808089064
25.94509022 9.859826198 4.32901534
27.48629109 7.11362055 4.194069367
24.65989941 7.352430864 3.547355915
24.71912021 8.366540111 3.343980808
27.00195784 7.970334448 4.940957899
26.24587337 8.808925932 4.58615236
25.81802199 9.720994054 4.302817428
27.20990207 6.953089339 4.148621539
24.76120644 7.299991944 3.558690573
24.87728256 8.335094233 3.361901778
27.89236554 8.140216316 5.099295492
26.23064435 8.714366787 4.5787981
25.18581668 9.394834064 4.192630852
24.75780709 7.216506553 3.555003429
25.06749542 8.313372463 3.384144087
26.52118415 9.823000162 5.480537196
26.73616852 7.713854712 4.883569118
26.27787469 8.640630608 4.582393453
24.68624588 9.122307296 4.10478982
28.30032037 7.047029342 4.308200816
25.79169966 7.432094776 3.700169588
25.06555186 8.227456453 3.380458373
26.56686529 9.747337068 5.483771582
26.75970801 7.631793285 4.883569118
26.48625824 8.619196272 4.614098833
24.70947684 9.044829346 4.104019251
25.8715435 7.369214773 3.70836332
25.0029426 8.122018214 3.368638057
26.96110805 9.798238479 5.55891778
26.78204912 7.54939226 4.883396502
27.09479533 8.725390687 4.715424822
24.70181196 8.956181485 4.098163213
25.87209831 7.283632938 3.705222393
25.04757344 8.051647009 3.371307154
27.2182767 9.797270967 5.605717441
26.79844254 7.465340322 4.882186291
27.45795142 8.749454147 4.773932739
24.76078925 8.891708791 4.103403175
26.19304325 7.287333516 3.747966552
25.05892428 7.970555028 3.369527835
27.24635692 9.713060559 5.605336926
26.97695813 7.425959336 4.910534737
27.50536636 8.671698995 4.777528093
24.95831385 8.876289762 4.131604755
27.46849165 7.551465761 3.92713716
25.08609791 7.894531295 3.369909067
27.61021954 9.747406633 5.674014827
26.97775403 7.337214634 4.906559344
27.22386988 8.491216365 4.724086569
24.99102004 8.801647067 4.132529343
27.48866185 7.466379054 3.92672732
25.5401623 7.951390581 3.427612085
27.74471525 9.699263204 5.695512552
26.99347818 7.2526245 4.905349132
27.14892343 8.376531962 4.70659952
25.02443517 8.727211784 4.133607949
27.50856828 7.381239783 3.926317716
25.82228055 7.952404543 3.462183018
27.76506509 9.610886622 5.693609973
27.00608135 7.167249373 4.903620597
25.08349597 7.655063146 4.344440269
26.31378157 9.086415539 4.341960515
27.53012592 7.29655578 3.926181102
25.30856083 7.709265896 3.390117902
27.73312627 9.50465294 5.681053898
25.08986246 7.572940858 4.341498659
26.335925 9.003725215 4.341035927
24.95315238 7.51742389 3.339405317
27.67848369 9.391134591 5.663932105
27.84028507 8.310000414 4.812992378
26.35780844 8.920984796 4.34011134
25.12439094 7.485012316 3.359232682
26.85655612 9.02047462 5.490049621
27.8344243 8.21533239 4.807598875
24.519746 8.215123563 4.033284273
26.82634358 8.918834215 5.478254101
24.58609811 8.153544159 4.040064897
26.6279042 8.762229228 5.432215472
27.26022818 8.94763422 4.474954689
25.83846446 7.439527296 3.445405978
26.86376179 8.74859095 5.474829933
27.09105045 7.725587831 4.666723058
27.03476623 8.781845791 4.433499897
25.79629515 7.341758181 3.436763305
27.06053723 8.720939805 5.509454507
27.09658381 7.63735246 4.663617895
26.00240939 8.358395022 4.259975518
25.89222114 7.283262713 3.446549911
27.34157682 8.719007777 5.561200402
27.19401647 7.574833774 4.676365184
26.0495865 8.285469581 4.26351985
27.16222384 8.570096834 5.519346973
27.0991802 7.458903975 4.65610008
25.65830364 8.074418189 4.195404616
25.92494516 7.121101169 3.445024747
27.06093805 8.446940289 5.493473789
25.09427736 7.812393325 4.099242295
27.1899087 8.395739835 5.51440074
25.11907191 7.735659212 4.099396314
27.43149055 8.378239779 5.558156749
25.03682549 7.626313184 4.082136239
26.82740302 8.103837435 5.430693409
25.13957414 7.573406009 4.095081414
28.01949945 8.370218415 5.6667855
26.6654637 7.943935879 4.339648809
27.79272056 8.209680816 5.615800639
25.65093407 7.55609384 4.170747841
27.73579049 8.100431254 5.599249146
25.60758955 7.458022321 4.159960354
27.85766233 8.043350931 5.618844292
25.57528038 7.363568481 4.151022042
27.98209761 7.963650281 4.537675943
28.51050394 8.019562084 4.619352902
28.51783732 7.927292346 4.616578664
26.66793327 7.324998439 4.313450423
26.59206316 7.216494094 4.297577467
26.59976297 7.131038994 4.295266236
28.15737181 7.456094793 4.543069924
28.20401093 7.375923765 4.546922292
28.01891044 7.235749335 4.513481225
28.08693364 7.16147224 4.5208784
47.89955388 8.849475865 8.069157406
47.87405436 7.785581323 8.034836577
7.473264119 0.284538507 0.551693306
7.564799619 0.26478414 0.558388041
7.536669473 0.240651399 0.556254552
7.452126188 0.235608352 0.277172488
7.532387837 0.217384252 0.555886731
7.486776515 0.213713924 0.27843557
7.529031719 0.194171341 0.555592463
7.488396311 0.190769258 0.278472733
7.521615786 0.170890458 0.555003868
7.483950719 0.167682367 0.278286975
7.513130762 0.147637322 0.554341779
7.489425704 0.144817743 0.278472733
7.614450179 0.129583147 0.842379313
7.515542397 0.124619742 0.554488942
7.50482222 0.122083628 0.279029977
7.613817964 0.10620787 0.842269343
7.523867268 0.101669591 0.555077479
7.508159505 0.099098154 0.279141408
7.619077522 0.08290258 0.842819076
7.520154839 0.078544549 0.554783211
7.511425721 0.076093349 0.279252869
7.620289658 0.059534953 0.842929046
7.514376728 0.055428533 0.554341779
7.508626071 0.053027088 0.279141408
7.622424448 0.036165387 0.843148928
7.499552041 0.032310043 0.553238258
7.514748979 0.030014646 0.2793643
7.625481412 0.012784946 0.843478721
7.521556325 0.0093288 0.554856763
7.511186355 0.283570047 0.48238414
7.517803897 0.006962355 0.27947576
7.621508817 -0.010604229 0.843038957
7.526536071 -0.013756167 0.555224584
7.510026278 0.260455537 0.48225605
7.521787197 -0.016110536 0.279624355
7.6134888 -0.033951179 0.84215943
7.532442288 -0.036876485 0.555666016
7.510789739 0.237413869 0.48225605
7.529696755 -0.039228626 0.279921544
7.549480734 0.234680089 0.208339379
7.540271567 -0.060049053 0.556254552
7.51547278 0.214483854 0.48251223
7.526542718 -0.062304411 0.279810112
7.520187914 0.210677699 0.2075122
7.540051812 -0.083181996 0.556254552
7.52008618 0.191527326 0.482768411
7.541304863 -0.08556529 0.280367356
7.486822409 0.186757558 0.206574724
7.543750206 -0.106370401 0.55654882
7.514652123 0.168321045 0.48238414
7.554996012 -0.108902927 0.280887437
7.489358907 0.163831167 0.206629873
7.5951851 0.147873899 0.764538085
7.544385375 -0.129530923 0.556622431
7.516130752 0.145284908 0.482448185
7.548631371 -0.131976013 0.280664545
7.458843894 0.140270702 0.205775113
7.601572229 0.124669392 0.7651389
7.547940673 -0.152756871 0.556916699
7.504567386 0.122030354 0.481679643
7.508226736 -0.154312896 0.279178571
7.459238878 0.117386627 0.205775113
7.601918759 0.10134751 0.7651389
7.544445433 -0.175843194 0.556695983
7.494928036 0.098874454 0.481039191
7.568659311 -0.178786634 0.281444681
7.466560855 0.09459009 0.205968127
7.599209214 0.077994041 0.764838492
7.448163858 -0.196463899 0.549633369
7.492202326 0.075849569 0.480847056
7.572070726 -0.202112762 0.281593275
7.479810376 0.071807309 0.206326575
7.601402959 0.054693948 0.765038765
7.491402064 0.052856415 0.480783011
7.553435554 -0.224807491 0.2809246
7.484993223 0.048891884 0.206464425
7.61148452 0.031413978 0.766040122
7.497516395 0.029896745 0.481167282
7.453790582 0.300739255 0.407928853
7.444842648 -0.244438405 0.276912433
7.493105262 0.02595572 0.206685007
7.620499846 0.008071612 0.766941345
7.501564569 0.006898218 0.481423462
7.463658072 0.278204674 0.408420263
7.492149746 0.002966679 0.20665744
7.620488619 -0.015307791 0.766941344
7.510532251 -0.016135586 0.481999869
7.47345783 0.255612387 0.408911674
7.496122323 -0.020029612 0.206767738
7.485507418 0.25288536 0.135311248
7.614436317 -0.038656743 0.76634053
7.514438762 -0.039198321 0.48225605
7.480195319 0.23286935 0.409239291
7.503022661 -0.04306746 0.206960738
7.442275883 0.228568468 0.134516465
7.599357461 -0.061895764 0.764838492
7.519272699 -0.062293448 0.482576276
7.529781849 0.211291731 0.411914764
7.505854129 -0.066112623 0.207043455
7.498911672 0.207281905 0.135528
7.52902519 -0.085475241 0.483216698
7.522409207 0.187990118 0.411477952
7.51561116 -0.089258653 0.207319186
7.515505041 0.184667553 0.135817008
7.538706134 -0.108717466 0.48385715
7.517959077 0.164801401 0.411204933
7.519299942 -0.112375553 0.207429484
7.516036131 0.161609435 0.135817008
7.542328363 -0.131915188 0.484113331
7.519427907 0.141754664 0.411259531
7.532912162 -0.135695965 0.207815499
7.514497252 0.138512947 0.135780888
7.604410452 0.122674798 0.694019393
7.53290812 -0.154869486 0.483536924
7.515833658 0.11862169 0.411041139
7.572436649 -0.159648785 0.208918408
7.500890559 0.115243117 0.135528
7.611721305 0.099435276 0.694655494
7.526411821 -0.177837954 0.483152653
7.489204816 0.09522013 0.409566878
7.586900938 -0.18324198 0.20933199
7.491211078 0.09210724 0.135347368
7.609003295 0.076052519 0.694382863
7.495902935 -0.200128796 0.481231327
7.497449439 0.072320176 0.410003691
7.496370435 -0.204069226 0.206850455
7.490458923 0.069114865 0.135329308
7.614179777 0.052742557 0.694837287
7.42941857 -0.221165117 0.477004375
7.49763597 0.049317984 0.410003691
7.490635628 0.046134139 0.135329308
7.609326441 0.029363122 0.694382862
7.501745896 0.026329346 0.410222112
7.367720677 0.291164883 0.333279928
7.488742364 0.023146796 0.135293188
7.393980542 0.291427155 0.064188911
7.619339433 0.006025773 0.695291654
7.508781197 0.003317278 0.410604327
7.454434662 0.271688788 0.337163141
7.48777796 1.71526E-4 0.135275127
7.439808632 0.270375597 0.064579254
7.624301264 -0.017361397 0.69574602
7.522734908 -0.019756064 0.411368756
7.461223566 0.249017577 0.337434073
7.496741763 -0.022828056 0.135437684
7.460591308 0.24821434 0.064752733
7.589357523 -0.04056604 0.692565397
7.591042349 0.234015977 0.621057712
7.519643577 -0.042818342 0.411204933
7.474933263 0.226519058 0.33802106
7.506634903 -0.045888749 0.135618316
7.429333388 0.224358496 0.064475162
7.570802441 0.210145154 0.619346106
7.526466146 -0.065949321 0.411587148
7.487576254 0.203911566 0.338562925
7.51445712 -0.068991998 0.135762827
7.560451635 0.18664669 0.618449592
7.529223658 -0.089075322 0.411750941
7.51413238 0.181566461 0.339736928
7.523207721 -0.092155924 0.135925399
7.552020551 0.163256815 0.617716038
7.536902109 -0.112293234 0.412187754
7.517650575 0.158575783 0.33987238
7.531887253 -0.115374188 0.136087956
7.549496503 0.140031316 0.617471539
7.52154692 -0.135146528 0.411368756
7.510110896 0.13536719 0.339511146
7.542494143 -0.138683342 0.136286663
7.548894084 0.116853706 0.617390059
7.521096685 -0.158221674 0.411368756
7.513487906 0.112370666 0.339646598
7.52903838 -0.161543915 0.136051836
7.553203065 0.093742949 0.617716037
7.526565409 -0.181439708 0.411696344
7.515794873 0.089342834 0.339736928
7.556445337 0.070597542 0.617960595
7.498025133 -0.2037705 0.410167514
7.51403583 0.066266656 0.339646598
7.555629702 0.047408108 0.617879056
7.484390287 -0.226380712 0.409457682
7.517200587 0.043230844 0.339782079
7.54876298 0.024205169 0.617308521
7.446736179 -0.248111173 0.407437413
7.513301935 0.020157473 0.339601447
7.531858336 0.00104343 0.615922952
7.513328587 -0.002893107 0.339601448
7.549766119 -0.022116545 0.617390059
7.514283143 -0.025947109 0.339646598
7.548665718 -0.045272816 0.61730852
7.518164029 -0.049026542 0.33982723
7.553474737 -0.06847676 0.617716038
7.523971794 -0.072149186 0.340098133
7.557215618 -0.091698541 0.618042075
7.527710543 -0.09528264 0.340278764
7.552912232 -0.114822722 0.617716038
7.536372614 -0.118518259 0.340685149
7.539569898 -0.137757494 0.616656505
7.504003853 -0.187104238 0.339285364
7.504393196 -0.210153282 0.339330544
7.497721989 -0.23298928 0.339059611
7.465023083 -0.254899959 0.337614676
8.698012793 -3.040015908 0.679703221
8.694288194 -3.068678307 0.680144595
8.662286573 -3.087302079 0.678378985
8.763477407 -3.149383332 1.030051152
38.11637305 -13.04025762 7.07004344
8.757329188 -3.033775475 0.594782438
8.172822307 -3.195039198 1.628596345
8.776238959 -3.070515265 0.596703793
8.11176276 -3.199893527 1.618377607
8.740431087 -3.08811719 0.594910528
7.944783713 -3.162225935 1.586991826
7.777871377 -3.095318688 1.236592869
8.660352239 -3.088380088 0.925356424
8.699898136 -3.103852045 0.592797066
7.809135586 -3.136022027 1.561810176
7.832282675 -3.173256568 1.568379322
7.629450798 -3.090613988 1.215987901
7.637231966 -3.148921799 1.533161443
7.587590855 -3.155724504 1.525132576
8.336771213 -3.140978355 1.563495751
8.320651495 -3.164089695 1.562285777
6.96995375 -2.95229534 0.558388041
8.370676114 -3.212541369 1.573521492
38.12042223 -13.04266527 6.67428808
7.109435177 -3.037134363 0.570306227
6.913239798 -2.978433317 0.555298195
8.805138958 -3.055050953 0.509651689
6.908642699 -3.001616014 0.555666015
8.755204226 -3.067851918 0.507303803
6.921688333 -3.009869005 0.280590248
6.861501059 -3.002624205 1.106386761
6.87108409 -3.01039069 0.553385363
8.741045053 -3.093032524 0.507030814
6.909675828 -3.029886464 0.280478788
8.705710419 -3.107188667 0.843510286
6.798872154 -3.003648934 0.548309133
7.505435375 -2.9934824 0.518569316
8.431562885 -3.012660206 0.489612877
8.647661813 -3.112832778 1.177701492
6.954514329 -3.09794477 0.561625109
7.424003592 -2.987436322 0.513573851
6.890954734 -3.072226454 0.280478788
8.640867646 -3.14036526 1.178082842
6.860371411 -3.081266394 0.554783211
6.892434391 -3.09826975 0.2809246
6.69884973 -3.029930697 1.086073976
6.859062343 -3.106001663 0.5554453
6.81190125 -3.087224993 0.278026921
8.567473262 -3.168237786 1.513191626
6.934779495 -3.165962903 0.562360809
8.291923614 -3.078025603 0.483661322
6.84602632 -3.128043535 0.279810113
6.883268528 -3.164362599 1.11910055
6.758340239 -3.110503432 0.548824117
8.146862476 -3.052648848 0.475744067
6.749263257 -3.108895623 0.276243758
7.453806243 -3.153158473 1.420369859
8.268690448 -3.144557599 1.465470358
7.20777643 -3.133132895 0.790973997
6.903078297 -3.001830272 0.483088608
6.887412358 -2.999307175 0.207208902
32.48215633 -12.80146858 7.108354676
8.581241643 -3.039414307 0.744454228
6.884696905 -3.01898681 0.482448185
7.662221628 -3.033035416 0.450627326
6.886415546 -3.024040525 0.207457051
8.669343092 -3.095807941 1.09149969
8.63569098 -3.08855037 0.749996446
7.542533621 -3.012456569 0.444129734
6.904525939 -3.057295281 0.20828423
6.874360059 -3.058411877 1.32045817
8.5934772 -3.098475808 1.083139779
6.870600628 -3.063205498 0.482768411
7.491579185 -3.018788786 0.441672652
6.892375628 -3.077241132 0.208201513
6.892117684 -3.098181479 0.484945918
6.873786921 -3.094268837 0.207925782
6.856220538 -3.107364964 0.483088608
6.838774368 -3.103775491 0.207153753
31.04614187 -12.78912627 6.836229911
6.856639164 -3.132946983 0.483793105
8.130385193 -3.02571265 0.392115285
6.843763537 -3.131396345 0.207594917
6.810739108 -3.137267183 0.481231327
7.171992709 -2.992827224 0.424964546
6.810524049 -3.141491873 0.206878022
6.882955144 -3.192370171 1.0459347
7.250206628 -3.051615638 0.4301517
7.080883757 -3.005953179 0.420651017
6.892204978 -3.541052434 0.288057309
7.000948645 -2.997401841 0.416446685
7.840690047 -3.035000973 1.629246134
6.983469531 -3.015304074 0.415955274
6.969470327 -3.01272385 0.137171747
7.847802253 -3.065471314 1.632670424
6.94945572 -3.023061471 0.691565709
6.941228127 -3.022364306 0.413989632
6.942780432 -3.026500328 0.136828558
7.155543555 -3.129029709 1.590052952
7.799999844 -3.074413442 1.624680183
7.093978408 -3.104320438 1.282756374
6.875398015 -3.015964588 0.685113565
6.803791901 -3.59910207 0.567804859
6.893524415 -3.026785567 0.411696344
7.545404504 -2.994013353 0.366919478
6.924309168 -3.043762804 0.136647926
7.119908668 -3.139502537 1.584267249
7.717551737 -3.069304877 1.609460732
7.569570592 -3.030514718 0.368545016
6.924993267 -3.069448703 0.136846619
7.069055835 -3.14301863 1.575090041
7.729054713 -3.101376295 1.613836309
6.740221825 -3.61478988 0.846007388
6.724466849 -3.61011926 0.563022898
6.872086889 -3.067805332 0.41153255
7.487988383 -3.024540668 0.365023007
6.901851579 -3.08456036 0.136575671
7.053120668 -3.161885388 1.573693504
7.68219363 -3.109969961 1.606036326
6.683533987 -3.614602573 0.560521588
6.851716488 -3.083956118 0.410877316
6.884151893 -3.102023637 0.136413099
6.88176789 -3.11045976 1.537583105
7.66443616 -3.13018347 1.604324123
7.73790749 -3.166967278 1.304052198
6.780131257 -3.693774518 0.569570527
6.840404419 -3.10413723 0.41076812
6.861858216 -3.117339813 0.136160212
7.619395825 -3.139098136 1.596904655
6.753795094 -3.079741626 1.229641841
6.721555507 -3.688649481 0.565597818
6.829940973 -3.124693244 0.410713523
6.810446807 -3.119225269 0.135329308
7.600663877 -3.158691626 1.595002195
6.75297495 -3.732894927 0.569202707
6.8112548 -3.141450639 0.410167514
7.19963028 -3.011352151 0.352741202
7.391747664 -3.098498387 1.553148647
6.812068865 -3.792892184 0.5751618
7.212447848 -3.0427455 0.353824874
6.787352729 -3.806456198 0.574058221
6.935583372 -2.951041028 0.340685149
7.373499547 -3.144179935 1.553338905
7.434924084 -3.176968918 1.261056388
6.790404525 -3.835599886 0.575308905
6.861323068 -2.94518871 0.064770086
7.062126541 -3.051807655 0.629126572
6.788140333 -3.861838902 0.576118157
6.834819516 -2.958677608 0.064605271
6.923009097 -3.30993311 1.562321772
6.969585283 -3.03722627 0.621709728
6.817795418 -3.906445184 0.579649494
6.900804136 -3.011553002 0.340323915
6.828459336 -2.98083263 0.064631296
7.03022747 -3.387732635 1.588855853
6.87993781 -3.023308965 0.61453744
6.857721617 -3.018688557 0.064995615
6.843293507 -3.032289231 0.61209228
6.793697556 -3.948205018 0.579649494
6.817578643 -3.045951656 0.61062523
6.801971601 -3.055768006 1.163044417
6.831995323 -3.073556228 0.888271155
6.806384279 -3.066034788 0.610462212
6.797696469 -4.00652681 0.582077251
6.842384021 -3.086561881 0.339285364
6.832382299 -3.082911408 0.065021632
6.793638413 -3.699960771 1.066419031
6.775166421 -3.077010672 0.608506165
6.781084407 -4.024817606 0.58170943
6.836519777 -3.109193893 0.339465996
6.809238659 -3.097647322 0.064891523
6.778381302 -3.103590919 0.609647178
6.799522042 -4.064022242 0.584357903
6.814235497 -3.124324412 0.338833829
6.836060254 -3.135197381 0.065238489
6.794711738 -4.089492303 0.585019992
6.805524716 -3.145634612 0.338878979
6.829132599 -3.157414376 0.065264514
6.806120449 -3.464002154 1.265106008
6.771898696 -4.104116005 0.584137187
6.813069073 -3.17539407 0.065203791
7.004390374 -3.592010341 1.304002211
6.769491199 -4.131106729 0.585019992
6.794244507 -3.192029206 0.065117052
6.794748344 -3.212524903 0.61461892
6.81031639 -4.184749092 0.589654849
6.781428318 -3.518246925 0.138020726
6.788938123 -3.21499853 0.065160422
6.798356794 -3.239787374 0.615841471
6.791509048 -4.201949915 0.589139865
6.821457168 -3.256057038 0.06556811
6.810845225 -3.271417321 0.617879056
6.791282867 -4.230676151 0.590243386
6.778995798 -3.261362905 0.065255841
6.944236618 -3.346650104 1.493792673
6.798982374 -3.291428787 0.617716037
6.758839423 -4.239303494 0.588551328
6.752762468 -3.274292104 0.065099699
6.801393001 -3.318390769 0.618857109
6.76519598 -4.27226697 0.590243385
6.773231366 -3.309921269 0.065394623
6.791180153 -3.339241506 0.618857108
6.747007581 -4.289791688 0.589802012
6.73792684 -3.318315314 0.065151749
6.754112146 -3.346785292 0.616412006
6.764052917 -4.32982721 0.592450486
6.750107503 -3.350085014 0.065368606
6.744704337 -3.367936017 0.616493486
6.718043922 -4.329489213 0.589581297
6.744269754 -3.373014782 0.065411975
6.739681829 -3.391300608 0.616982542
6.749907431 -4.379391068 0.593554006
6.710189538 -3.689386827 0.418739973
6.799076465 -3.426542389 0.066045186
6.768359137 -3.431793582 0.620568657
6.732264985 -4.39735227 0.593186185
6.763567662 -3.434707924 0.065802311
6.817537513 -4.13346352 0.802389478
6.610465624 -3.37727024 0.607039058
6.731241963 -4.426204734 0.594289706
6.750327938 -3.454075717 0.065776287
6.769328184 -3.484662837 0.6226063
6.679465216 -4.083911618 0.215949447
6.748586969 -3.479351449 0.065863034
6.71613774 -3.483387992 0.61869409
6.776925189 -3.520321491 0.066244697
6.767252861 -3.536288214 0.624399328
6.720034148 -4.507970738 0.596938179
21.65277676 -12.38636274 5.078792681
6.768718561 -3.563533579 0.625540399
6.821398826 -3.595830881 0.348541906
21.38542506 -12.32065927 5.024926295
6.80797518 -3.939666287 0.142103003
21.06613554 -12.22294356 4.958690753
6.788636487 -3.631963466 0.34800004
20.98877341 -12.26427998 4.949313752
6.707696182 -3.926549615 0.995949526
20.98482823 -12.34849334 4.957294097
6.825476543 -4.72823298 1.541007916
6.754038122 -3.667849382 0.06666973
20.8903653 -12.37934646 4.943927399
6.733980853 -3.683754347 0.066582991
20.50476204 -12.23599737 4.861531844
6.83114958 -4.793924692 1.23279343
6.775919512 -4.759579426 0.610842691
6.740163738 -3.714048318 0.06675647
20.43437032 -12.27916384 4.853751292
6.754092651 -3.748782557 0.067008024
20.40330931 -12.34585626 4.855347267
6.832880219 -4.15245559 0.144451218
20.1619929 -12.28449955 4.806867709
20.09748127 -12.32989977 4.800483337
19.81696358 -12.24164039 4.742427459
19.68362572 -12.2428631 4.71948444
16.69896349 -12.18507613 3.836553137
19.68500507 -12.32763889 4.728861441
16.5513502 -12.15535408 3.811188977
19.44484278 -12.26045123 4.68018209
16.42463494 -12.14003715 3.790569346
6.765179613 -4.632291139 0.526190663
19.30620982 -12.25597794 4.655842415
16.21928082 -12.06537388 3.751701872
6.773121505 -4.668315785 0.527919854
19.16613417 -12.24971439 4.6311041
16.18376385 -12.11625505 3.752066891
6.825113552 -4.03282442 0.648279928
6.760407492 -4.690211118 0.528047944
16.08290796 -12.11792458 3.737286369
6.824967358 -4.758114876 1.460126993
6.708349375 -4.684646677 0.525101924
18.91214756 -12.25147555 4.587811578
16.01431788 -12.14344634 3.729987422
6.714356398 -4.719552686 0.526703025
18.76613019 -12.23878171 4.561476817
15.92852653 -12.15553931 3.718673746
18.62937988 -12.23122321 4.53733646
15.76327518 -12.10613543 3.688747685
18.59340168 -12.28940128 4.537735572
15.62103805 -12.07326911 3.664113561
18.29047212 -12.16997067 4.472896684
15.56064158 -12.10302856 3.658639234
18.21478523 -12.20039835 4.463519685
15.48549954 -12.12101576 3.649698059
18.03102529 -12.15761704 4.427609076
15.242016 -12.00602633 3.600976984
17.89229519 -12.14408951 4.402670971
15.29988224 -12.12785512 3.623421471
17.81773517 -12.17349717 4.393493763
15.16114389 -12.09380575 3.599334757
17.73428232 -12.196454 4.382122149
15.02199273 -12.05840398 3.575065414
17.68147217 -12.24020744 4.378331295
14.93138753 -12.06118629 3.562292138
17.46374807 -12.16890849 4.333642117
14.83632975 -12.05980573 3.548423808
17.22416689 -12.08063493 4.283367266
14.73989976 -12.05671039 3.534190696
17.14379513 -12.10290351 4.272594083
18.75563508 -12.23304492 4.339266081
14.68841752 -12.09000337 3.53072385
17.09460204 -12.14693001 4.269601454
18.59656164 -12.21078006 4.311109802
14.57705036 -12.07354786 3.512841028
17.0189971 -12.1719563 4.260025133
18.44025884 -12.1892789 4.283524771
14.44401966 -12.03826771 3.48966674
16.85989719 -12.13652332 4.22950088
18.31287068 -12.18596889 4.262597819
14.35805099 -12.04145775 3.477805892
16.71307792 -12.10885309 4.201969256
18.25011419 -12.22515729 4.256700297
14.32554923 -12.08925585 3.478900711
16.73681489 -12.20452714 4.217331043
18.08879852 -12.19766172 4.22778346
14.1647326 -12.02814143 3.448792022
16.60765609 -12.18856394 4.194188704
17.86690469 -12.12793824 4.184597752
14.09562139 -12.04407716 3.440945666
16.41963763 -12.12825951 4.156083215
17.79799854 -12.16109601 4.177178639
13.90054995 -11.95137407 3.40226082
16.25180956 -12.08153147 4.122965445
17.75979612 -12.21508567 4.176988381
13.9240474 -12.04606984 3.417041342
16.20760551 -12.1260518 4.121169677
17.67784408 -12.23877885 4.16652467
13.81360806 -12.02482166 3.398976366
14.88364151 -12.02063329 3.3575834
16.08108711 -12.10852405 4.098425975
17.45898561 -12.16666477 4.123719951
13.71304507 -12.01143077 3.383283416
14.79777477 -12.0264819 3.34652054
6.901377976 -4.817070414 1.312682117
6.949747483 -4.866723115 0.38349091
15.97591686 -12.10631505 4.081069103
17.30744814 -12.14011615 4.09670522
13.68055544 -12.05734597 3.384378235
14.73031025 -12.04688254 3.339606163
6.733100927 -4.745864501 0.372337927
6.726604935 -5.936836736 0.333528292
15.92311779 -12.14338683 4.077079405
17.17628802 -12.12690926 4.074446937
13.56993805 -12.03402534 3.366130631
14.75184179 -12.14021059 3.352916355
6.740489139 -5.985978576 0.335125726
15.85313842 -12.16712421 4.068699947
17.07818337 -12.13632815 4.059988282
13.5087449 -12.05399863 3.360108893
14.54156669 -12.04217904 3.313504811
6.696757214 -5.983991053 0.333862644
15.63581747 -12.0767391 4.022414795
17.00812933 -12.16524952 4.052188179
13.45633709 -12.08159175 3.356277029
14.6029201 -12.16870531 3.33597624
6.719981431 -6.041923826 0.335943025
15.51977878 -12.06331348 4.002065292
16.88547555 -12.15599899 4.031832476
13.31487715 -12.02856693 3.330182831
14.36249672 -12.04321163 3.289477702
6.679181296 -6.042399618 0.334828537
6.787478235 -5.706570818 0.24459748
15.47111922 -12.10181438 3.999072663
16.83299617 -12.19680094 4.028217574
13.24808141 -12.04224494 3.322701493
14.36086112 -12.1170711 3.297601816
15.43468877 -12.14982808 3.999272456
16.66303285 -12.15178257 3.99644687
13.12909019 -12.00785012 3.302081625
14.222257 -12.07501332 3.27426612
15.1822722 -12.02675631 3.943410983
16.62725454 -12.20400926 3.996827385
13.06252538 -12.02077563 3.29460005
14.08030179 -12.02902157 3.250066157
6.774905311 -5.80326544 0.246058852
15.05565494 -12.00181373 3.920068852
16.33862777 -12.06946731 3.9363301
12.93901198 -11.98063393 3.272702972
14.06349831 -12.08949893 3.254733202
6.775999043 -6.282900625 0.343521517
15.03175711 -12.05837111 3.923460594
16.22352316 -12.06154836 3.917495985
12.84104757 -11.96330602 3.257192651
13.97345179 -12.08683824 3.242460366
6.734770664 -6.283208568 0.34240703
14.86964625 -12.00348869 3.890741696
16.22967553 -12.14361323 3.927959223
12.74331116 -11.94548982 3.241682093
13.87315242 -12.07468748 3.227767582
6.819677948 -6.392046889 1.03389911
6.740234732 -6.327094671 0.343670112
14.89207531 -12.09724301 3.906303039
16.05117859 -12.08704711 3.893715401
12.69301343 -11.97171238 3.238215011
13.766392 -12.05619475 3.21151888
7.081320917 -6.678213137 1.076666753
6.722244687 -6.349115893 0.343744409
14.77978273 -12.08147729 3.886552205
16.04453678 -12.15936043 3.901134989
12.66193038 -12.01601185 3.239674847
13.67908948 -12.05409184 3.199764605
7.049263249 -6.688960167 1.0749077
6.749759114 -6.410363707 0.686692283
6.691144079 -6.358695492 0.343150031
6.721048448 -5.938273688 0.247382343
14.68740299 -12.08132219 3.871988405
15.95563594 -12.16923275 3.888578912
12.60082858 -12.03171634 3.233470719
13.53444644 -12.00059824 3.174527285
12.48944099 -11.92410971 2.550783376
7.007860594 -6.690651115 1.071719329
6.680271923 -6.38748116 0.343595815
6.70877508 -5.9641793 0.247602911
14.53779528 -12.03322961 3.842262139
15.79751566 -12.12547508 3.859091064
12.55322132 -12.06010089 3.230733673
13.53504808 -12.07550636 3.18334305
12.46778131 -11.97676229 2.553852299
6.678647612 -6.425266198 0.344524545
6.678525045 -5.97406985 0.247161747
14.50532749 -12.08153628 3.843459238
15.65302353 -12.09106426 3.832837602
12.47303946 -12.05687305 3.219602625
13.38799527 -12.01828097 3.157414552
12.36838291 -11.95445513 2.540992477
7.003124199 -6.768753442 1.077326339
6.675025203 -6.007906189 0.247713209
14.3803248 -12.05233776 3.820117105
15.54067037 -12.08058485 3.814384003
12.36127862 -12.02241907 3.200260202
13.29551084 -12.00912265 3.144277449
12.3359039 -11.99648285 2.541869144
6.84408933 -6.655774646 1.055997532
14.33054709 -12.08566016 3.816725365
15.49193601 -12.11913277 3.811530371
12.28568688 -12.02246427 3.190223972
13.18644399 -11.9842735 3.127164479
12.21348391 -11.95055703 2.52418683
6.814401838 -6.667703844 1.054568331
14.14696325 -12.00529975 3.777622571
15.3135183 -12.05547436 3.776715774
12.26135517 -12.0725173 3.193508428
13.10891046 -11.98745092 3.117484446
12.15349911 -11.96506844 2.519364338
6.820120034 -6.714379238 1.058636228
14.07802261 -12.02128423 3.769043795
15.34725701 -12.15848475 3.794218084
12.10202422 -11.98898347 3.161575357
13.05685059 -12.01360711 3.113854523
12.10408297 -11.98976702 2.516733866
6.744409268 -6.680712373 1.05006067
6.787354673 -5.813390317 0.488684653
13.99945473 -12.02865602 3.7578715
15.18782722 -12.1082062 3.763969441
12.07980973 -12.04063205 3.165407222
12.87826969 -11.92246038 3.079974291
12.0118879 -11.97167617 2.505189399
13.93357558 -12.04655537 3.750090947
15.0051136 -12.03802056 3.72782304
11.91715624 -11.95161655 3.132379096
12.80199236 -11.92499022 3.070467112
11.96392524 -11.99726458 2.502851227
6.785601629 -6.810451097 0.709204362
13.84258342 -12.04229605 3.735527147
14.89554311 -12.02541293 3.709749957
11.79530668 -11.90222244 3.109934609
12.75744192 -11.95680072 3.068565723
11.79544488 -11.90111556 2.475231628
6.64435373 -6.235427442 0.917045152
6.809585994 -6.876589229 0.71391277
6.725857618 -6.320309626 0.2545788
13.73773923 -12.02532993 3.717172494
14.85095898 -12.06486534 3.707847614
11.72768784 -11.90683207 3.101723234
12.71066663 -11.98642347 3.066145774
11.7706785 -11.94922888 2.477715949
11.75095191 -11.92920301 1.852201025
6.702077617 -6.336794352 0.254413367
13.62651218 -12.00200561 3.697022548
14.81159442 -12.10850621 3.70727684
11.67253259 -11.9237861 3.096796315
12.63239154 -11.98604268 3.056120035
11.67375428 -11.92378535 2.465002279
11.6941341 -11.94460193 1.849012655
6.735509553 -6.400940312 0.596319522
6.694193052 -6.368350013 0.254854531
13.63289425 -12.08210056 3.708793511
14.69856056 -12.09152192 3.68825247
11.61806973 -11.94121891 3.092052024
12.55352712 -11.98461382 3.045921442
11.61917991 -11.94110938 2.461202839
11.64495715 -11.96759979 1.847033779
6.696287327 -6.409593593 0.255681724
13.46704566 -12.00908593 3.673680653
14.52905117 -12.02700644 3.654959699
11.55882516 -11.95348189 3.086030286
12.52025125 -12.02648272 3.046785709
11.51922115 -11.91127714 2.447758416
11.60265813 -11.99755379 1.846154135
6.969309352 -7.212804679 0.739882574
13.35064041 -11.97901522 3.651934496
14.46492862 -12.04890427 3.648111124
11.44851801 -11.91232581 3.066322844
12.42663741 -12.01007832 3.032957193
13.34055785 -11.97627472 2.969836757
11.47919606 -11.94299508 2.447027663
12.38397575 -11.97679269 2.374964023
11.47694409 -11.94065291 1.831971567
6.791032424 -7.071587099 0.723255978
6.70499345 -6.98638554 0.359978747
13.27964158 -11.98905602 3.642557732
14.42112327 -12.0875495 3.646398802
11.40920143 -11.94455024 3.065593045
12.27463301 -11.93622077 3.004781362
13.25836215 -11.9761462 2.959704206
11.35845105 -11.89017175 2.429053049
12.34646378 -12.01403929 2.37482741
11.39769023 -11.93124793 1.82515518
13.21233354 -12.00206749 3.634178746
14.29241622 -12.05451651 3.62318923
11.34745539 -11.95311311 3.058841506
12.2738604 -12.00895252 3.013597127
13.21206666 -12.00814027 2.957579658
11.26334081 -11.86326458 2.416485528
12.26636839 -12.00958556 2.366497065
11.3610313 -11.9661593 1.825155179
13.1009515 -11.97445336 3.61362969
14.13186227 -11.99349217 3.59179904
11.28711412 -11.96284047 3.05245475
12.14079891 -11.95188731 2.989915724
13.14749884 -12.02331818 2.951369331
11.20312933 -11.87258183 2.411370735
12.1010241 -11.92063534 2.341642643
11.23013123 -11.90119721 1.809983056
6.753480003 -7.167809791 0.366108429
13.04035079 -11.99270046 3.607045998
14.10321207 -12.04380448 3.59389164
11.20798928 -11.95222887 3.040958684
12.06138736 -11.94679737 2.979371423
13.04158168 -12.00013644 2.935843513
11.13822865 -11.87659004 2.405233125
12.05384105 -11.94724378 2.339594151
11.20580428 -11.94864476 1.811962049
6.638279609 -7.084528191 0.716193364
6.74990036 -7.208189659 0.367111456
12.96250104 -11.99471695 3.595674149
14.05949488 -12.08125739 3.592179319
11.16322341 -11.97792657 3.038769047
11.95561151 -11.91491302 2.962258454
12.97429889 -12.01194119 2.928979442
11.09499449 -11.90346933 2.403771857
12.01432464 -11.98137006 2.339047933
11.09454706 -11.90298898 1.799868386
6.769707758 -6.755382062 0.962506926
11.0506309 -11.86624835 1.196156965
12.82595364 -11.94161487 3.567942969
13.94141693 -12.05434486 3.571442863
11.06562302 -11.94647922 3.022163671
11.89187557 -11.9243371 2.955516931
12.83343638 -11.95485536 2.905445621
11.04430546 -11.92221195 2.400702934
11.86492399 -11.9052049 2.317061448
11.01001942 -11.88520058 1.792062443
10.97691539 -11.8598402 1.192110644
6.426655776 -6.947959549 0.351843011
12.77495375 -11.96750944 3.563953032
13.77253208 -11.98235878 3.537579556
10.98563508 -11.93335297 3.010302823
11.84622227 -11.95167026 2.953269835
12.76934663 -11.96853501 2.899235295
10.96144232 -11.90582222 2.390619734
11.79557767 -11.90847035 2.310642981
11.00581882 -11.95402115 1.797339718
10.93710205 -11.88979191 1.191742883
6.773256318 -6.844290826 0.617966617
6.533131606 -7.106687296 0.35886426
12.7189252 -11.98849925 3.558566441
13.74604711 -12.0336093 3.54024293
10.90516838 -11.91912338 2.998259347
11.80189651 -11.98023942 2.951368447
12.71677733 -11.99276326 2.895639942
10.91952231 -11.93355622 2.389450531
11.73744372 -11.92271836 2.306409384
10.87649805 -11.88653695 1.782167713
6.749594405 -6.376675103 0.847327069
10.86087169 -11.87986297 1.187402235
6.752926179 -6.865750208 0.618030633
13.60298031 -11.98228067 3.51284792
10.82489336 -11.90451335 2.986216109
11.68791059 -11.93756724 2.932008382
12.65845457 -12.01134957 2.890737102
10.85756655 -11.93918984 2.383897522
11.67240425 -11.92964124 2.300810361
10.79049412 -11.86543477 1.774031918
6.746818009 -6.899839335 0.97121874
10.80358321 -11.89024641 1.185121642
6.76372986 -5.985397773 0.408235182
13.56321656 -12.02135271 3.512086888
10.74612893 -11.890982 2.974537652
11.61345163 -11.93454506 2.922501202
12.60156523 -12.03105264 2.886160897
10.80032383 -11.94969206 2.379367331
11.58671489 -11.91497202 2.291114355
10.73671293 -11.87931155 1.771173399
11.55538677 -11.89022711 1.668665743
10.70890402 -11.85894102 1.178721175
6.645131598 -6.360045052 0.502990275
6.762494863 -6.021399446 0.409273704
13.48377527 -12.02500905 3.501052639
10.69448603 -11.90706994 2.970340767
11.58226089 -11.97578294 2.923884032
12.47708429 -11.98559307 2.866059111
10.68891049 -11.89960838 2.362853985
11.49365364 -11.89205357 2.279916311
10.70486623 -11.91737168 1.771943014
11.51747043 -11.92419118 1.66846547
10.64316121 -11.85908218 1.175484166
6.767054972 -6.06278316 0.410673489
13.43732069 -12.0577963 3.498579522
10.64022812 -11.92002037 2.96541385
11.50928969 -11.97362488 2.914722559
12.35300108 -11.93948404 2.845957325
10.63851702 -11.91684751 2.35978506
11.45025215 -11.92011574 2.278550649
10.62522899 -11.90196225 1.764796774
11.44293681 -11.91999309 1.662958002
10.632618 -11.92070492 1.178353296
6.709097055 -6.048064588 0.408280333
5.567127977 -6.250116145 0.005697278
13.27784816 -11.98843547 3.466618559
10.56250026 -11.90627087 2.953917782
11.41330824 -11.94691834 2.899684068
12.27741321 -11.93949758 2.836968706
10.55200979 -11.89319033 2.348679045
11.4033669 -11.94444051 2.276502157
10.55040492 -11.89138137 1.758420032
11.39669684 -11.94496508 1.6615561
10.5397641 -11.88983469 1.172099934
5.544612515 -6.263422853 0.005693874
13.23228638 -12.0211931 3.464335701
10.51161829 -11.9223953 2.949903291
11.37253215 -11.97759252 2.898646947
12.17444158 -11.91225132 2.821606443
10.48472098 -11.89063327 2.341810682
11.3250743 -11.93553361 2.268171812
6.791779524 -6.185971276 1.089262489
10.48494878 -11.89089141 1.753582637
11.29221884 -11.90839654 1.651642656
10.46829633 -11.88245451 1.168200836
6.707794461 -7.075794584 0.625715996
6.78955892 -7.169559782 0.272363216
5.53197567 -6.287911972 0.005700681
13.16201021 -12.03126375 3.455584545
10.45814421 -11.93536219 2.945158999
11.23027748 -11.90067609 2.871681091
12.11534091 -11.9273978 2.816376731
10.43841203 -11.91158438 2.339618662
11.25238169 -11.93202457 2.260934138
12.09333236 -11.9182064 2.175684709
6.781554433 -6.214830151 1.090675476
10.37767018 -11.84227055 1.741708796
11.22901684 -11.91474531 1.647737359
10.44493186 -11.92952066 1.169672236
6.706585189 -7.118130794 0.627637352
5.520557595 -6.313887981 0.00570885
13.02532023 -11.97987485 3.429330846
10.35690817 -11.89324305 2.926911394
11.17754232 -11.91783205 2.867532606
12.04434702 -11.93049178 2.808368728
10.3680342 -11.90476077 2.332019548
11.17033354 -11.91806332 2.251784349
12.02219826 -11.92102986 2.169456739
10.33410939 -11.86580767 1.740499418
11.16180179 -11.91646215 1.64323113
10.36769431 -11.91486415 1.165110931
6.677894375 -7.13138859 0.6269969
5.500504932 -6.330040297 0.005708169
12.96040383 -11.99377352 3.421911496
10.30492937 -11.90711898 2.92253212
11.11473445 -11.92396932 2.860791083
11.99161602 -11.95136894 2.80460982
10.2544196 -11.84750125 2.314629535
11.11616129 -11.93343143 2.248233819
11.96450338 -11.93684049 2.165643711
10.26708531 -11.86213465 1.735332172
11.0967163 -11.92006353 1.639025426
6.821155412 -6.81037478 0.879588023
10.27172848 -11.87796998 1.158416138
6.655984193 -7.151842413 0.6269969
6.758206052 -6.282901845 0.41708531
5.474522769 -6.339317211 0.005701362
12.90486594 -12.01608549 3.416965028
10.23821721 -11.90364291 2.913955727
11.02588935 -11.90165474 2.847308274
11.93608506 -11.96924111 2.800197171
12.83719447 -11.97107355 2.737708176
10.21221706 -11.87215578 2.313314416
11.08151648 -11.96965934 2.248643422
11.85572211 -11.90111173 2.152552623
10.21119917 -11.87097203 1.732033889
10.99725276 -11.88613027 1.629712796
6.831845199 -6.863029953 0.883677438
10.21638913 -11.88749316 1.156282649
6.528978633 -7.058675077 0.617069985
5.450489409 -6.350771001 0.005696597
12.8636418 -12.05159249 3.415823717
10.21442607 -11.94994586 2.917605202
10.93861971 -11.88035683 2.834170934
11.86250013 -11.96866734 2.791535424
12.76149819 -11.97389338 2.729386414
10.14039144 -11.86207377 2.305276852
10.95351839 -11.90445832 2.230070854
11.80170753 -11.91980729 2.149375218
10.14308497 -11.86522403 1.726646702
10.95265315 -11.91102448 1.628511166
6.800951962 -6.874046319 0.882405177
10.17339316 -11.91119759 1.155547008
6.481627294 -7.050754383 0.614636268
6.769580154 -6.847116554 0.526523618
5.432926697 -6.369745583 0.005698639
12.79803228 -12.06406538 3.408213874
10.1140615 -11.90629265 2.899357597
10.87419342 -11.88334146 2.826911087
11.82710894 -12.00641033 2.791862295
12.64926386 -11.94176963 2.713205183
10.10843508 -11.8984053 2.306299905
10.91159608 -11.93215862 2.228978419
11.75673382 -11.94747412 2.147849817
10.07381489 -11.85765558 1.721039693
10.8717586 -11.8960962 1.621902203
6.709655524 -6.347231465 0.755294168
10.10582477 -11.90585798 1.152015672
6.701652467 -6.820134978 0.522865265
5.412065666 -6.384857905 0.005697278
12.64129254 -11.98977204 3.376252909
10.0311863 -11.8824216 2.886036912
10.83967244 -11.91883309 2.827429648
11.70256637 -11.95310989 2.771106765
12.62331327 -11.99072822 2.715516652
10.01508494 -11.86208794 2.293293932
10.81963733 -11.90473185 2.217643762
11.69089565 -11.95370429 2.142511862
10.00212242 -11.84673508 1.714992802
10.78838259 -11.87783872 1.614892697
9.983084377 -11.83465775 1.142157421
5.38858628 -6.396843251 0.005693194
12.5888238 -12.01358793 3.372067472
9.968774998 -11.88225805 2.878555338
10.70993088 -11.84900483 2.803056595
11.61630337 -11.93804802 2.759339855
12.49860976 -11.94543043 2.696561659
9.965291908 -11.87684376 2.290225009
10.76380566 -11.91655077 2.21368339
11.60646371 -11.94043855 2.133741874
9.968286003 -11.88041138 1.715432565
10.71855636 -11.87395225 1.609885907
9.940321929 -11.85758719 1.141421662
5.302819041 -6.334366789 0.005623084
12.49667271 -11.99911667 3.357228538
9.905200151 -11.8803141 2.870708982
10.67089517 -11.87887566 2.802365181
11.54601729 -11.93888108 2.751331852
12.42700499 -11.95016144 2.689010465
9.905366981 -11.87924867 2.284817916
10.69609309 -11.91487051 2.207264924
11.57735731 -11.98383828 2.135139961
9.91460358 -11.89032699 1.712464135
10.68407044 -11.90900248 1.610186314
6.772109718 -7.015021788 0.889766113
9.908365509 -11.89339137 1.141936646
5.291674861 -6.360599334 0.005631933
12.42520401 -12.00397544 3.34790661
9.825421356 -11.85840699 2.858118097
10.6134106 -11.88804612 2.796833869
11.40952142 -11.87040209 2.727471159
12.4059059 -12.0033458 2.692400778
9.835420792 -11.86921015 2.277072886
10.60804722 -11.88997219 2.196613096
11.43955113 -11.91412561 2.116456526
9.854613489 -11.89237111 1.708396237
10.5859029 -11.87265883 1.600873684
11.38583227 -11.86688019 1.500724868
9.854022492 -11.90222481 1.139876828
5.318013375 -6.432294614 0.005680942
5.550611777 -6.236256567 -0.074897807
12.36579075 -12.02014193 3.341818829
9.767744852 -11.86268885 2.851913968
10.56904474 -11.91171061 2.794759627
11.37645728 -11.90891683 2.72828822
12.23946308 -11.91522329 2.664199199
9.757455091 -11.84892738 2.267427901
10.47753611 -11.81646803 2.177084471
11.36117413 -11.90539284 2.108703393
9.792808505 -11.89185855 1.703998606
10.52501351 -11.87752737 1.59716866
11.34730981 -11.89959391 1.500452237
9.777541777 -11.88388248 1.135241971
6.793254567 -7.128869127 0.538481383
6.706331592 -6.548763425 0.423677762
6.745172009 -7.622136197 0.280745298
5.30333334 -6.454760891 0.005686387
5.542053909 -6.265239919 -0.075041342
12.29446423 -12.02438751 3.332496901
9.715738821 -11.87357693 2.847352068
10.53635851 -11.94851205 2.795796747
11.34054642 -11.94447904 2.728451774
12.17108664 -11.92160422 2.657264318
9.736720275 -11.8979473 2.271081427
10.44188887 -11.84929961 2.177221083
11.35872393 -11.97617655 2.11505844
6.751643121 -6.620179163 1.121171478
9.698366815 -11.85108008 1.693883818
10.44841137 -11.86421324 1.591060376
11.29019739 -11.91266583 1.497726038
9.712630022 -11.87908056 1.131931291
6.695472406 -6.578408987 0.424264749
6.808236799 -7.741125552 0.28435734
5.283505324 -6.471001235 0.005686387
5.524787074 -6.284466329 -0.075068254
12.15885151 -11.96495818 3.305672664
9.665619082 -11.88654606 2.843337576
10.41785681 -11.88744752 2.774016734
11.22598414 -11.89669876 2.709657475
12.09997129 -11.92490479 2.649713124
9.646493998 -11.8617575 2.25851367
10.39830798 -11.87308187 2.17571881
11.26885994 -11.95466944 2.105144519
9.658827135 -11.87692257 1.693334143
10.37919827 -11.85877752 1.586053585
11.23925716 -11.93202444 1.495817617
9.655385752 -11.88328049 1.129503593
6.71448123 -7.133336951 0.535696655
6.719327837 -7.687465156 0.281627626
5.264257556 -6.487956975 0.005687068
5.507454412 -6.30364564 -0.075095173
12.10185497 -11.98217376 3.300155422
9.56669117 -11.83890453 2.82490758
10.36387114 -11.8992991 2.769349453
11.12936906 -11.86703836 2.695112273
12.06403035 -11.96266641 2.649867143
