6.780875156 -4.249389697 -0.516506907
9.004713157 -6.603313868 -0.917064599
8.17640444 -5.552768256 -0.904876093
7.496323474 -4.701386536 -0.897404777
6.010416043 -4.412869302 -0.886883085
5.620151633 -3.819200195 -0.873959008
5.299124893 -3.325713867 -0.866461877
4.673374969 -3.705432884 -0.875280093
6.972615222 -4.396165718 -0.229954106
6.731109135 -5.351870435 -0.309315642
6.767677385 -4.989932407 -0.380793002
6.764430789 -4.268042951 -0.516249296
8.99563799 -6.639194534 -0.918210499
8.170839352 -5.585694703 -0.906152467
7.48943575 -4.729143396 -0.898312855
6.000044044 -4.43364862 -0.887355512
5.614138348 -3.840344638 -0.874852004
5.301457778 -3.349892643 -0.868519668
6.821533552 -4.330214715 -0.225408566
6.741969292 -5.394348038 -0.310573747
6.774799111 -5.027340706 -0.38205975
6.800159804 -4.319811381 -0.519985077
8.155305709 -5.611865166 -0.906334799
7.482447652 -4.75690243 -0.89922099
5.98800711 -4.453220937 -0.887591726
5.604780725 -3.859237777 -0.875234666
5.293662872 -3.367736667 -0.868931239
6.763575077 -4.322592147 -0.223930565
6.740177677 -5.426914985 -0.311256727
6.786556826 -5.068425783 -0.383597937
6.763781887 -4.67920314 -0.452194
7.24505014 -4.633686518 -0.555088755
8.147055488 -5.643096614 -0.907337707
7.459439005 -4.774472215 -0.898212002
5.972726422 -4.470380818 -0.887355512
5.593729579 -3.876979905 -0.875362279
5.280803229 -3.382358735 -0.868519668
6.780544646 -4.362794243 -0.224934486
6.73980241 -5.460779341 -0.31201159
6.770975257 -5.089222763 -0.383597937
6.746936404 -4.698220528 -0.452029312
7.19388225 -4.632121273 -0.552254674
8.139506419 -5.67489916 -0.908431749
7.463154931 -4.809191247 -0.900431799
5.955017847 -4.485696658 -0.88676495
5.581808878 -3.894122972 -0.875362279
5.282056279 -3.406059351 -0.870440249
6.74447585 -4.368902769 -0.224181545
6.731537068 -5.488377983 -0.312407007
6.781621334 -5.129859402 -0.385090884
6.754567174 -4.734371482 -0.453511531
7.130232423 -4.62214348 -0.548454461
8.129394072 -5.704992574 -0.909252267
7.457546529 -4.838021152 -0.901541697
5.930149253 -4.495546879 -0.885111398
5.566588659 -3.908949409 -0.874852004
5.271581742 -3.422248391 -0.870440249
6.762857797 -4.410323285 -0.225241241
6.754069818 -5.541331434 -0.314240267
6.762671733 -5.148220489 -0.384909924
7.106825496 -4.637997675 -0.54774594
8.11836067 -5.734502674 -0.90998165
7.446000304 -4.863054282 -0.90194528
5.925013769 -4.520344414 -0.886410601
5.55700008 -3.92772677 -0.875234667
5.271007519 -3.444908156 -0.87208647
6.738578758 -5.563298991 -0.31431215
6.774600842 -5.190207805 -0.386493352
6.727018397 -4.776883513 -0.453621352
7.087558695 -4.656491459 -0.547359464
8.10965634 -5.765729716 -0.910984556
7.431045864 -4.885875188 -0.90194528
5.929233044 -4.55240979 -0.889127142
5.545731793 -3.945331683 -0.875362279
5.260414208 -3.4610632 -0.872086471
6.737621829 -5.597357176 -0.315067013
6.777632816 -5.225607039 -0.38757914
6.695272551 -4.785306915 -0.45246848
7.080730417 -4.683168539 -0.547939178
8.087880184 -5.787685002 -0.9105287
7.413531988 -4.907003132 -0.901642607
5.922310221 -4.576043157 -0.89019013
5.532795238 -3.961749608 -0.875234666
5.254725863 -3.480467698 -0.87290961
6.751108081 -4.491759965 -0.226217282
6.726551791 -5.62312931 -0.315354576
6.767882855 -5.25127489 -0.387941059
7.109523046 -4.733628654 -0.551288541
8.068469335 -5.81130717 -0.910346369
7.395130931 -4.92751769 -0.901238965
5.930192398 -4.611258798 -0.893497176
5.516591584 -3.975806092 -0.874596838
5.246495707 -3.498220973 -0.87332118
6.768025606 -4.533032906 -0.227249098
6.735270152 -5.665612148 -0.316576739
6.76355088 -5.281236091 -0.388619688
6.790333125 -4.916476465 -0.460922772
7.102427704 -4.760418871 -0.551868198
8.04334616 -5.830773098 -0.909525792
7.393198612 -4.9590494 -0.902853357
5.509185278 -3.996206287 -0.87536228
5.229158654 -3.509884373 -0.872223679
6.797878731 -4.949078387 -0.153525648
6.755744227 -4.554893162 -0.227304858
6.717857005 -5.686249129 -0.31657674
6.744960199 -5.300109794 -0.388483968
6.761499417 -4.927288909 -0.459989483
12.05867238 -8.136079201 -0.938910243
8.049554231 -5.873030762 -0.912260931
7.389493155 -4.989502801 -0.904265987
5.49209268 -4.009580156 -0.874596837
5.206054933 -3.517592246 -0.87016589
6.754972009 -4.584580054 -0.227751059
6.713313815 -5.717848078 -0.317187836
6.728667556 -5.320778222 -0.388483968
6.781777262 -4.973992761 -0.462404991
12.03035297 -8.17079412 -0.938652631
8.038722233 -5.903003542 -0.913081507
7.374973713 -5.01270907 -0.904366897
5.486159684 -4.031109238 -0.875617388
5.186228724 -3.52741972 -0.868656877
6.754080793 -4.61430446 -0.228197244
6.732921597 -5.770282861 -0.318949183
6.72091092 -5.34823865 -0.388981607
12.00522858 -8.20766418 -0.938652631
8.024578307 -5.930597734 -0.913537364
7.360381523 -5.035873213 -0.904467808
5.48971592 -4.059716367 -0.878168706
5.181103605 -3.547231285 -0.869617167
6.731656298 -4.629339741 -0.227918369
6.709132548 -5.785691203 -0.31866162
6.718506935 -5.380072548 -0.389795956
6.775976818 -5.033970489 -0.464106852
11.97752471 -8.242760243 -0.938459393
7.991164609 -5.943896713 -0.911805075
7.346535794 -5.059559803 -0.904669571
5.491556668 -4.08719852 -0.880464915
5.184062028 -3.572665551 -0.871949318
6.726463003 -4.656229034 -0.228225124
6.757018911 -5.863229013 -0.321788927
6.778198743 -5.462087757 -0.394229558
6.776494596 -5.066693603 -0.4652048
11.95628218 -8.282308867 -0.938781437
7.988037878 -5.979723746 -0.913537363
7.340790296 -5.088876259 -0.905880379
5.49566161 -4.11651399 -0.883143844
5.176332348 -3.590811675 -0.872498039
6.723628348 -4.684843856 -0.228615535
6.751043296 -5.894448257 -0.322364052
6.769944732 -5.489778279 -0.394727197
6.81118222 -5.125282165 -0.468663359
11.93490826 -8.321804879 -0.939103481
7.325143004 -5.111373783 -0.905880379
5.485382448 -4.135146287 -0.883526507
5.164479649 -3.606108543 -0.872360831
6.727228342 -4.71807717 -0.229229045
6.795992561 -5.970536907 -0.325383534
6.760036242 -5.516206544 -0.395134386
6.814529899 -5.160621945 -0.46998092
11.91177215 -8.360101975 -0.939296719
7.31838272 -5.14011296 -0.906990277
5.473460741 -4.152554919 -0.883654062
5.149339829 -3.619088066 -0.871674959
6.73150469 -4.751953121 -0.229870451
6.759673626 -5.975473797 -0.324520817
6.741536714 -5.535651945 -0.395043906
6.801047779 -5.183320194 -0.470145608
11.88117755 -8.393151821 -0.938910243
7.302578935 -5.162541055 -0.906990277
5.457541876 -4.166920259 -0.883143845
5.135786634 -3.633152726 -0.871263389
6.725042387 -4.778372154 -0.230149311
6.749523141 -6.003490062 -0.324916234
6.727602563 -5.558854285 -0.395224866
6.810466883 -5.223606961 -0.471902336
11.862691 -8.434768368 -0.939489957
7.293191191 -5.189535196 -0.907797502
5.436867198 -4.177600973 -0.881868127
5.127036811 -3.650615653 -0.871674959
6.741248167 -4.821078376 -0.231209007
6.740008854 -6.032166258 -0.325347592
6.788099012 -5.643974351 -0.399794188
6.815750066 -5.260949163 -0.473384584
11.82783101 -8.464734697 -0.938781437
7.284515083 -5.217099966 -0.90870558
5.42951741 -4.198508319 -0.882761123
5.122253505 -3.67094399 -0.8727724
6.737783656 -4.849913271 -0.231599418
6.748204878 -6.076890867 -0.326641639
6.709456892 -5.61349092 -0.396174905
6.795635159 -5.278772418 -0.473110104
9.885985928 -7.120994076 -0.786386427
7.280580827 -5.248150286 -0.910219061
5.422090059 -4.219410313 -0.883654061
5.122214432 -3.694754296 -0.874692982
6.72125352 -4.869388678 -0.231543643
6.738416602 -6.105617586 -0.327072998
6.741113055 -5.675224888 -0.399070349
6.769968119 -5.29221679 -0.472451324
9.860861422 -7.148947417 -0.786128816
7.270887993 -5.275135917 -0.911026286
5.425518051 -4.248867157 -0.886332992
5.123679966 -3.719762751 -0.876887981
6.776552412 -4.941224022 -0.23396979
6.721130159 -6.127608967 -0.327144881
6.751872908 -5.719771215 -0.400744256
6.774888432 -5.32963025 -0.473933572
9.820340988 -7.165637258 -0.784647343
7.244224711 -5.289790881 -0.909714567
5.415573292 -4.267947936 -0.886843267
5.105845689 -3.730789262 -0.875790482
6.77183725 -4.969679453 -0.23433232
6.729547233 -6.17319568 -0.328474899
6.728971045 -5.73592232 -0.400427576
6.751459976 -5.344812527 -0.47343948
9.795897781 -7.193959893 -0.784454104
7.227961428 -5.311990716 -0.909714567
5.397014142 -4.28022845 -0.885950271
5.088789788 -3.742328241 -0.874830191
6.804802892 -5.02606503 -0.236005527
6.72306037 -6.20533511 -0.329085966
6.753804515 -5.79296122 -0.402961043
6.753773254 -5.380432437 -0.47475704
9.778595867 -7.22753811 -0.784840581
7.224428445 -5.343607008 -0.911328959
5.075691812 -3.756744325 -0.87455583
6.758063484 -5.023660754 -0.234917951
6.713510864 -6.234772785 -0.329553267
6.722387526 -5.801905339 -0.402146724
6.755153026 -5.415491996 -0.476019675
9.745166549 -7.249166191 -0.783938822
7.205606332 -5.363964101 -0.911026286
5.068908757 -3.775849034 -0.875378911
6.734615361 -5.038382457 -0.234639076
6.723412268 -5.838877437 -0.403277751
6.74938659 -5.444968193 -0.476788248
7.610704194 -5.697749863 -0.613637801
7.200263146 -5.394396652 -0.912438857
5.06205625 -3.794947427 -0.876202051
6.742284377 -5.076456674 -0.235447792
6.746087919 -5.894973529 -0.405720767
6.783038044 -5.506555485 -0.480356628
7.535005995 -5.677235333 -0.60893583
7.186062879 -5.418258276 -0.912741589
5.059087749 -3.817022358 -0.877711063
6.803960141 -5.155677544 -0.238152814
6.76398147 -5.947304975 -0.407892314
6.758379602 -5.521022623 -0.47980764
7.484950839 -5.675604403 -0.606294987
5.051298107 -3.835520426 -0.878396993
6.788110466 -5.176527714 -0.238152814
6.789098736 -6.006420836 -0.410516289
6.725983183 -5.52904954 -0.478709692
7.444496968 -5.680984785 -0.604427096
5.043442348 -3.8540067 -0.879082923
6.768232159 -5.19428598 -0.238013369
6.78780076 -6.042498762 -0.411556837
7.429407189 -5.705621178 -0.604620334
5.03630582 -3.87308486 -0.879906063
6.756220401 -5.218081387 -0.238152814
6.75434832 -6.04996454 -0.410652008
7.413446867 -5.729608026 -0.60474914
5.022832754 -3.887305144 -0.879631643
6.74333667 -5.241238218 -0.23826435
6.735013693 -6.069989244 -0.410606769
6.726095745 -5.63367584 -0.482387835
7.404498593 -5.759064109 -0.60545766
5.012445933 -3.903914044 -0.879906062
6.74061021 -5.272371491 -0.23873843
7.407226793 -5.797745943 -0.607132313
5.004343785 -3.922329111 -0.880591993
6.738541467 -5.304155562 -0.239240391
6.845988366 -5.805942473 -0.493532116
7.390972736 -5.821678645 -0.607261177
5.000063637 -3.943797988 -0.881963794
6.730072294 -5.331010963 -0.239519266
6.744595816 -5.755621381 -0.487493331
7.38558977 -5.854244874 -0.608291742
4.994147604 -3.964046076 -0.883061294
6.713685392 -5.35163355 -0.239519266
6.71251309 -5.763926908 -0.48645028
4.992023999 -3.987385891 -0.884844724
6.73544275 -5.402853752 -0.240885717
6.801328259 -5.876539089 -0.494190867
6.723502173 -5.427259421 -0.241053027
7.319751506 -5.912565903 -0.607325551
6.696733537 -5.439668276 -0.240690497
7.296931189 -5.931218208 -0.606939075
6.721032871 -5.493716874 -0.242168498
7.247802475 -5.928304534 -0.604362664
6.715417041 -6.391220822 -0.083168957
6.6910225 -5.503515875 -0.241694418
7.241138153 -5.96002539 -0.605328855
6.574442707 -6.295604935 -0.081661846
6.601893966 -5.87811471 -0.16139361
6.743412109 -5.581380463 -0.244204235
7.233578466 -5.991124391 -0.606230613
6.734706139 -5.609079819 -0.244510991
7.247360709 -6.0401219 -0.60893583
6.731255999 -5.641272361 -0.245012951
6.724615469 -5.670919023 -0.245403362
6.671363275 -5.661125013 -0.244092685
6.724661901 -5.741932402 -0.246686143
6.695641385 -5.752764857 -0.246267838
6.661324279 -5.758897094 -0.245654342
6.746194166 -5.868532049 -0.249446941
6.713114677 -5.876033705 -0.24888922
6.709308333 -5.909154839 -0.249419046
6.671696719 -5.912473158 -0.248693985
6.726641688 -5.998110716 -0.251426888
10.73228718 -11.94915653 3.601010482
10.652041 -11.93325392 3.586352509
10.58947783 -11.93668045 3.577601593
10.49537374 -11.90397139 3.5581309
10.48066776 -11.96106706 3.565569084
6.762606537 -6.218998175 -0.256307078
10.37791853 -11.91737087 3.543035428
10.3093804 -11.91226235 3.532096784
10.22506463 -11.88835127 3.515688817
11.08769823 -11.965022 3.486683181
10.17079146 -11.89889654 3.509563129
11.01185119 -11.95654173 3.474350978
6.626858849 -6.245982709 -0.254048241
10.1418192 -11.93896765 3.512188356
10.940783 -11.95275931 3.463481716
10.0497518 -11.90441289 3.492936295
10.8751059 -11.95444056 3.454284955
10.00252037 -11.92248103 3.489217202
10.81476936 -11.96163507 3.446759991
9.95339869 -11.93812312 3.484841745
10.70220195 -11.91037991 3.422513536
9.899293993 -11.94756452 3.478716055
10.64346371 -11.91835848 3.415406992
9.806770451 -11.9100843 3.459026496
10.60230546 -11.94583596 3.413943818
6.737942445 -7.076757767 0.176531406
9.757207951 -11.92425615 3.45443217
10.56107756 -11.97317332 3.412480642
11.3737465 -11.97316771 3.362253538
6.733379999 -7.115551661 0.176982986
9.684873535 -11.91022509 3.441743296
10.40181431 -11.8657995 3.372766546
11.26632684 -11.93319146 3.341305604
6.7190529 -7.144187564 0.177181693
9.604744649 -11.88599557 3.426210562
10.357011 -11.88807111 3.37004929
11.19814992 -11.93411455 3.331928841
6.755819868 -7.227584476 0.178735124
9.5315756 -11.86975699 3.413083952
10.31216854 -11.91017878 3.367332032
11.1628204 -11.96984774 3.332327953
9.495197105 -11.90629059 4.017955244
9.502418521 -11.90809541 3.415709415
10.27621809 -11.94250134 3.367541125
11.07209002 -11.94582568 3.316167943
9.449616462 -11.92399903 4.014128627
9.385204792 -11.83550541 3.386612574
10.21029456 -11.93978409 3.357925944
10.9935619 -11.93433304 3.303599229
9.385471486 -11.91798971 4.002393663
9.330732237 -11.84125036 3.380049151
10.10078901 -11.88535872 3.333888582
10.9430012 -11.95282686 3.299409737
9.29582992 -11.87895762 3.979688591
9.288343593 -11.86213787 3.377861421
10.05481242 -11.90508544 3.330753377
10.8706681 -11.94720518 3.288636319
9.222541848 -11.86009587 3.9638719
9.237526268 -11.87209545 3.372610966
9.988692248 -11.9006719 3.320929339
10.78861323 -11.93035119 3.274870506
9.195571715 -11.90057663 3.967953628
9.170023353 -11.86023881 3.361234823
9.944618101 -11.92224896 3.318420938
10.68318473 -11.88686878 3.253922572
9.116031124 -11.87274677 3.949330987
9.119325973 -11.86974557 3.355984132
9.891768178 -11.9331278 3.312986425
10.6473191 -11.92031935 3.254122129
9.054344141 -11.86760306 3.938361349
9.813882387 -11.90786411 3.904018933
9.068064854 -11.87827687 3.350514809
9.822779151 -11.92417032 3.302117399
10.55475274 -11.88990625 3.236964574
8.977002473 -11.84138898 3.920503797
9.726933479 -11.87641578 3.883906656
8.992658495 -11.85473242 3.336075704
9.766946938 -11.93079218 3.295637659
10.47090103 -11.86859127 3.222400775
8.952848995 -11.88509273 3.925861063
9.694734929 -11.91146535 3.885623509
8.960358094 -11.88772097 3.337607305
9.706846954 -11.93187426 3.287694981
10.42151982 -11.88592404 3.218410603
8.884477326 -11.86992916 3.91183013
9.597790379 -11.86652942 3.861341531
8.909221543 -11.895629 3.332137982
9.63269164 -11.91520953 3.274944595
10.36440524 -11.89419985 3.212026468
8.825514476 -11.86687166 3.901880685
9.54433329 -11.87476093 3.854473882
8.795788953 -11.81957568 3.303259771
9.541581812 -11.87685551 3.256341747
10.30156474 -11.89557114 3.203846804
8.782170757 -11.88456054 3.898819391
9.503017332 -11.8979271 3.852511698
8.753103615 -11.83787523 3.300853175
9.497167608 -11.89613787 3.25362449
10.24648425 -11.90558186 3.198061338
8.682720332 -11.82571434 3.870757523
9.446580772 -11.90196745 3.844417625
8.712122353 -11.8583827 3.29910318
9.393770463 -11.84094698 3.230632117
10.17105707 -11.89153719 3.185891499
8.635001824 -11.83667438 3.865655366
9.345183128 -11.84868446 3.817928128
10.15507114 -11.93798468 3.80413544
8.671098034 -11.87875013 3.29735295
9.348317519 -11.85819159 3.227496912
10.16118159 -11.95404311 3.19427072
8.579920799 -11.83727482 3.857236805
9.297425747 -11.86280252 3.813267764
10.03621057 -11.87186426 3.773236389
8.61800006 -11.88239027 3.291008395
9.300435461 -11.87218907 3.223525337
10.07260694 -11.92377855 3.177911153
8.462762102 -11.7513409 3.820756379
9.237755908 -11.86144066 3.80370217
9.989114863 -11.88995051 3.76922643
8.446304906 -11.72115269 3.239159266
9.229127253 -11.85590943 3.211402227
9.996285037 -11.90734428 3.165342441
8.35915305 -11.68288608 3.790143433
9.167502085 -11.84602559 3.789721544
9.931414231 -11.89517751 3.76120698
8.383039518 -11.70892783 3.228658121
9.174760962 -11.86096363 3.205131582
9.949663345 -11.92591759 3.162150492
8.31318678 -11.69429114 3.785551491
9.13525301 -11.87947406 3.791438396
9.885565792 -11.91437308 3.75766885
8.326715772 -11.70596618 3.220782201
9.126409386 -11.87354817 3.200951149
9.874252067 -11.90961705 3.149781099
8.24993786 -11.68104103 3.773051205
9.064625106 -11.86276702 3.777212674
9.776633627 -11.85692195 3.730071899
8.260352546 -11.68842683 3.208968559
9.045421058 -11.84320511 3.185274414
9.757286267 -11.84229696 3.124045005
8.280050943 -11.80866832 4.408250722
8.18573701 -11.6659295 3.760040701
9.007082452 -11.86272556 3.768382842
9.746370923 -11.89437678 3.732430574
8.211557745 -11.69534654 3.203936735
9.001950154 -11.86155204 3.18276625
9.745118717 -11.90174508 3.131825558
8.235037747 -11.82145962 4.403573902
8.133872715 -11.66798523 3.752642573
8.981155872 -11.90423298 3.772797639
9.704310241 -11.91744076 3.730307695
10.46612341 -11.92141421 3.688701219
8.160007611 -11.69807503 3.197811047
8.96257326 -11.88521013 3.181721261
9.675781164 -11.89130235 3.121251931
8.176961901 -11.81521382 4.391881853
8.082623369 -11.67062764 3.745499316
8.906794906 -11.8813103 3.756854828
9.584566014 -11.84441836 3.698229191
10.4013238 -11.92117432 3.678736036
8.109073394 -11.70140069 3.191904226
8.899679592 -11.8774343 3.172315172
9.616456169 -11.8927387 3.113870253
8.149344313 -11.8528534 4.396558673
8.036914701 -11.68103216 3.740907375
8.812969319 -11.83161049 3.732572849
9.546964529 -11.87225285 3.697757361
10.293872 -11.87134535 3.653596467
8.026656305 -11.65871174 3.173527162
8.842758658 -11.8772289 3.164999535
9.548622401 -11.88322986 3.103695503
8.092444928 -11.84779143 4.385451227
7.96993986 -11.66013346 3.726366227
8.769131387 -11.84846203 3.729384238
9.483196985 -11.86732397 3.687143204
10.24659319 -11.89032788 3.649746246
7.9814848 -11.66958991 3.169808069
8.773709717 -11.86027617 3.153294375
9.484605154 -11.87801077 3.094717851
8.030283927 -11.83457856 4.371420297
7.923265705 -11.66853085 3.721264067
8.701151052 -11.83235379 3.715894276
9.434657617 -11.88114159 3.682425853
10.18028852 -11.88693826 3.63910181
7.935774293 -11.67949456 3.16587011
8.719907031 -11.86349858 3.147023728
9.405483518 -11.85332063 3.080752482
7.96507383 -11.81633808 4.355636032
7.872831022 -11.67114152 3.714376156
8.650510283 -11.83942379 3.709762389
9.386724687 -11.8955363 3.677944299
10.13114612 -11.90328025 3.634572096
7.882981619 -11.67871442 3.159088057
8.681738752 -11.88782596 3.146396686
9.349658149 -11.8574974 3.074368347
7.912821112 -11.81688039 4.346866996
8.614153527 -11.86591704 4.308882938
7.807383411 -11.6510616 3.700345222
8.60731279 -11.85649322 3.706819112
9.312408249 -11.8761005 3.663084384
10.07445055 -11.91050902 3.627324649
7.821573742 -11.6647528 3.148805778
8.552187347 -11.78618267 3.112535052
9.310213948 -11.88226984 3.073370805
7.82250514 -11.75988292 4.317051799
8.553013536 -11.85805074 4.296477543
7.75552785 -11.65081255 3.692691985
8.524960144 -11.81915663 3.68695193
9.264580015 -11.89005009 3.658602829
10.03034151 -11.93241398 3.624606915
7.775472152 -11.67326374 3.144649187
8.449076424 -11.71955369 3.08807974
9.241810366 -11.86979859 3.062796942
7.773736732 -11.76467705 4.310036569
8.48976767 -11.84680191 4.282944427
7.714413804 -11.66648624 3.690140906
8.371765552 -11.68213836 3.636180217
9.18165359 -11.8584838 3.640204784
9.928743006 -11.88538936 3.601052828
7.72616126 -11.67671945 3.139179628
8.388026204 -11.71044002 3.078882745
9.138793074 -11.81206894 3.040651908
7.733933138 -11.78287524 4.307990462
8.443365437 -11.8587237 4.277869449
7.654697657 -11.65373108 3.678661051
8.308333499 -11.66907119 3.624162012
9.11737806 -11.8503971 3.629118797
9.882278245 -11.90380313 3.597429104
7.665111876 -11.66204409 3.12889735
8.329379095 -11.70424858 3.070521882
9.120428576 -11.86335681 3.046637168
7.688867907 -11.79292827 4.303020868
8.375361362 -11.83992587 4.261799082
7.606756329 -11.65853611 3.672793571
8.261856659 -11.67946839 3.619501646
9.045565529 -11.83199178 3.614966508
9.825876128 -11.91002331 3.590181893
7.62289593 -11.67570069 3.126272123
8.281576063 -11.71297945 3.066132358
9.053651644 -11.85156881 3.036462416
7.630298431 -11.78194629 4.290451917
8.324102678 -11.84437115 4.25418638
7.554650572 -11.65666466 3.664885226
8.213722169 -11.68731086 3.614105755
9.021568193 -11.87593783 3.619919893
9.75470819 -11.8979321 3.577498742
7.567925818 -11.66955922 3.118396203
8.230987196 -11.71752672 3.060697845
9.000067726 -11.85665431 3.030676713
9.722499086 -11.87512328 2.97407796
7.611706762 -11.83264528 4.300390156
8.278937798 -11.85726709 4.2496755
7.513619147 -11.67165723 3.662334148
8.149522865 -11.67191627 3.601596649
8.95230459 -11.86012487 3.606711027
9.699703046 -11.90515004 3.57070429
7.509366352 -11.65744889 3.108988921
8.177649681 -11.71786369 3.054218105
8.96837052 -11.89046939 3.032272689
9.653183187 -11.86453507 2.963995001
7.525937574 -11.77857856 4.27232924
8.211898314 -11.83846401 4.233886945
8.934210253 -11.89337313 4.211789367
7.462670245 -11.67102976 3.654936019
8.09930903 -11.67615323 3.595219666
8.905380674 -11.87354027 3.602465269
9.652713447 -11.92198305 3.566854304
7.468307555 -11.67221332 3.106801193
8.119930822 -11.71155565 3.046066336
8.919508008 -11.9014613 3.028083196
9.610565323 -11.88646059 2.962092658
6.982055495 -10.91225028 2.40430073
7.514875196 -11.84117786 4.286652
8.175539306 -11.86360163 4.233886943
8.889046767 -11.90916093 4.207702873
7.411795988 -11.67019935 3.64753789
8.052997451 -11.68577958 3.590559537
8.834651011 -11.85483319 3.588549015
9.548927687 -11.86806497 3.541941233
7.418854783 -11.67365893 3.101113239
8.049014844 -11.68567457 3.032898
8.83086476 -11.85882252 3.010327211
9.527935017 -11.85849096 2.947824497
6.926394809 -10.89876809 2.396636766
7.445874481 -11.81240009 4.267944249
8.104958462 -11.83875258 4.21612476
8.767640689 -11.82199686 4.167382954
7.372861995 -11.68797723 3.646007243
7.990820375 -11.67203345 3.578786191
8.779733137 -11.85688966 3.581001158
9.521595993 -11.90871527 3.545338459
7.366338594 -11.66996063 3.094112319
7.998767678 -11.68932993 3.027463487
8.764716646 -11.84568582 3.00015246
9.474969622 -11.86695276 2.942687771
6.879805256 -10.89918116 2.392074865
7.388285682 -11.80114437 4.255667599
8.047017427 -11.83182895 4.204847085
8.744458156 -11.86665552 4.173649069
7.315921443 -11.67694672 3.635547819
7.927713285 -11.65641257 3.566522652
8.749650709 -11.8923802 3.583595631
9.438965409 -11.8799134 3.52812583
7.321689523 -11.67845051 3.090393226
7.954070733 -11.70087521 3.024119189
8.71846587 -11.85909861 2.996760955
9.413500215 -11.86443314 2.934887905
6.829099908 -10.89274612 2.386053127
7.34750086 -11.81644676 4.253036889
7.983286444 -11.81591615 4.19046806
8.676748421 -11.85072929 4.158664943
7.269334713 -11.6820974 3.630190555
7.884859189 -11.67023657 3.563334042
8.669538391 -11.85954488 3.565669415
9.38678172 -11.88893915 3.522237367
7.268289792 -11.67269556 3.082955043
7.891866048 -11.68632244 3.014086059
8.662390202 -11.85888738 2.989977709
9.35456654 -11.86473271 2.927848835
6.779018528 -10.88693786 2.380214015
7.303676438 -11.8267273 4.248652369
7.902619442 -11.77423238 4.167067275
8.62506694 -11.85628472 4.151309724
7.220243873 -11.68295867 3.623557749
7.840374126 -11.68149345 3.559409674
8.624546886 -11.87429235 3.562131283
9.31058156 -11.86710507 3.507289713
7.218073678 -11.67170252 3.076829355
7.828736118 -11.66987395 3.003634981
8.586828919 -11.83147943 2.976411452
9.30722373 -11.87946627 2.92442443
6.751791733 -10.91771945 2.382403653
7.268858273 -11.85152486 4.249529273
7.86220159 -11.79203613 4.164811835
8.59428794 -11.89048867 4.154033896
7.163123338 -11.6704439 3.612843217
7.782987087 -11.67322785 3.549598749
8.548269 -11.84553431 3.545620318
9.244784926 -11.85797407 3.496192044
7.165889426 -11.66718493 3.069828668
7.78205069 -11.67756219 2.99945455
8.555647694 -11.86492178 2.978206984
9.228517334 -11.85373844 2.911107322
6.679671925 -10.87554709 2.368717951
7.224504076 -11.86070238 4.244852455
7.819099896 -11.80570301 4.161146391
8.557768608 -11.91679921 4.154033896
9.193502425 -11.83975864 4.090118397
7.118729825 -11.67833035 3.608506384
7.728936757 -11.66956964 3.541259344
8.368626017 -11.67189517 3.485944864
9.201204024 -11.87704144 3.493474311
7.117866299 -11.66912202 3.064577978
7.717578094 -11.65816438 2.98837643
8.475834647 -11.83057523 2.963044517
9.19150643 -11.88121909 2.910917064
6.645762758 -10.89514921 2.368535559
7.155908647 -11.82962361 4.225852403
7.787062049 -11.83604792 4.16340183
8.470872232 -11.87250557 4.12951493
9.14416899 -11.8511055 4.084327683
7.081365599 -11.69763344 3.60774106
7.67444945 -11.66488069 3.532674844
8.316426195 -11.67456102 3.479104633
9.124914841 -11.85350259 3.478299923
7.072932364 -11.67588206 3.060640019
7.667805244 -11.66054296 2.982941917
8.429270357 -11.84215303 2.959453455
9.11492461 -11.85721387 2.898170731
6.608230353 -10.90875963 2.367075723
7.107763083 -11.83184735 4.218837175
7.744939364 -11.85104838 4.160300482
8.392119112 -11.83878071 4.108810183
9.101310867 -11.87068175 4.081431853
7.000607039 -11.64472167 3.584781114
7.622184957 -11.66321317 3.525071436
8.272711049 -11.68891526 3.475802299
9.06128367 -11.84585494 3.467881983
7.026514747 -11.67996727 3.056045929
7.605255349 -11.64307673 2.972490839
8.39346527 -11.86875805 2.959653011
9.078503817 -11.88512205 2.89817073
6.558512616 -10.90202173 2.361236612
7.015085913 -11.75914968 4.185222061
7.680335023 -11.8312981 4.145076023
8.364622959 -11.8770584 4.113168953
9.068942083 -11.90391951 4.083274353
6.962370186 -11.66199386 3.583505575
7.555223187 -11.63856801 3.510600146
8.221719212 -11.69277734 3.4694339
8.988945329 -11.826297 3.454066582
6.971631124 -11.66963792 3.047732512
7.566837979 -11.66225278 2.97144585
8.355322573 -11.89204732 2.959054578
9.01528848 -11.87772918 2.889609834
6.502848001 -10.88495292 2.353207628
6.980925944 -11.78390819 4.186391268
7.622163952 -11.82093882 4.133234252
8.307736297 -11.87349571 4.103089093
8.978226427 -11.86015201 4.058794007
6.909793627 -11.65502007 3.574831907
7.520006637 -11.66250704 3.510845479
8.167442753 -11.69165665 3.461650011
8.95027252 -11.85070931 3.453160591
6.928826487 -11.67922248 3.04466955
7.527844387 -11.68048012 2.970191767
8.259347 -11.83245389 2.93790709
8.969347877 -11.89279072 2.886565944
6.4608946 -10.89047688 2.350105564
6.927284044 -11.7755954 4.175868422
7.578617262 -11.83295674 4.129287467
8.266326646 -11.89181713 4.100637195
8.909901962 -11.84523806 4.044315805
6.85732553 -11.64783382 3.566158238
7.474779633 -11.67082794 3.506430679
8.124885833 -11.70707856 3.458819506
8.929657417 -11.89914672 3.45927555
6.872655383 -11.66595532 3.035700003
7.481429098 -11.68704806 2.966011335
8.187827286 -11.80700791 2.92533814
8.895728672 -11.87075829 2.874580642
6.416972094 -10.89245724 2.346273462
6.886783036 -11.78936132 4.173237713
7.489751738 -11.77358089 4.100529419
8.205747004 -11.88228571 4.088650461
8.82731516 -11.81069763 4.023257245
6.806430737 -11.64294042 3.558249895
7.428531985 -11.67734658 3.501525218
8.058039616 -11.68714793 3.445610877
8.877971473 -11.90618528 3.453387088
6.824021865 -11.66508712 3.030011813
7.431896041 -11.68849019 2.960576586
8.151565701 -11.83207251 2.92533814
8.827020759 -11.85468553 2.864117166
6.352247316 -10.85862736 2.334777632
6.833307486 -11.78065318 4.162714868
7.46589511 -11.8159699 4.107296212
8.138227297 -11.86218106 4.073121783
8.794489991 -11.84237094 4.02483653
6.77893074 -11.67798332 3.562586728
7.380243253 -11.68041218 3.495638663
8.002376952 -11.68295216 3.437119363
8.810669937 -11.89188743 3.441383665
6.7788895 -11.66993642 3.025855222
7.399656696 -11.71702357 2.962039761
8.08644767 -11.81497631 2.914964069
8.761998675 -11.84303893 2.854795239
6.311495754 -10.86531267 2.332040352
6.786155003 -11.78250242 4.155991469
7.412269308 -11.81118942 4.097709883
8.040021021 -11.79645471 4.042064427
8.739214231 -11.84367845 4.016149985
6.718445741 -11.65600244 3.549576227
7.321699437 -11.66686879 3.484846645
7.95501585 -11.6905764 3.432166216
8.729105108 -11.85767988 3.423718042
6.738179541 -11.68222654 3.023667258
7.362115661 -11.73718486 2.961412719
8.050161901 -11.83972944 2.914964069
8.690734667 -11.82240411 2.84338071
6.266341771 -10.86418383 2.327661077
6.7138939 -11.74017387 4.133776576
7.359758114 -11.80781866 4.088688119
8.02590956 -11.85373153 4.053234335
8.682301828 -11.84242548 4.006673798
6.661041315 -11.63879589 3.538096372
7.28535837 -11.6884542 3.484601314
7.88373689 -11.66259539 3.416834471
8.673708967 -11.85846088 3.416244096
6.689213836 -11.67998194 3.017760437
7.314178878 -11.74062559 2.956605247
8.001733776 -11.84650694 2.910574785
8.656160279 -11.85138914 2.843951482
6.234447419 -10.88591767 2.328208487
6.677844005 -11.76071651 4.133776576
7.319962978 -11.82463262 4.086714493
7.951377871 -11.82161395 4.033891438
8.637408429 -11.85730979 4.002725111
6.612404691 -11.63647833 3.531208458
7.214255639 -11.65387412 3.46767741
7.845210264 -11.68269405 3.415655015
8.582316246 -11.80937536 3.39450199
6.629714526 -11.6588863 3.00704066
7.265261496 -11.74222023 2.951379826
7.954978215 -11.85554009 2.906784405
8.581703103 -11.82544935 2.831395406
6.194702152 -10.89388165 2.325836221
6.627172087 -11.75532325 4.124715237
7.280133272 -11.84131325 4.084740864
7.892621187 -11.81235135 4.022449254
8.572143439 -11.84389586 3.989300238
6.568596245 -11.64239407 3.526871624
7.169328649 -11.66108616 3.463262374
7.796389001 -11.68730524 3.409994241
8.508412809 -11.78353105 3.3795541
6.577603536 -11.65028118 2.99960224
7.224594601 -11.75695576 2.949498467
7.890850346 -11.83830637 2.896609654
8.505765675 -11.79677556 2.818268557
6.574727956 -11.74639304 4.114484224
7.198771755 -11.78989507 4.059366449
7.81696949 -11.77718714 4.00228953
8.507041376 -11.83019312 3.975875364
6.515362833 -11.63127933 3.517432633
7.123415326 -11.66647881 3.458356913
7.750296968 -11.69577803 3.405512687
8.386488866 -11.6900752 3.345355577
6.508431039 -11.61082399 2.984288137
7.182377751 -11.76904793 2.946990302
7.818789143 -11.8085349 2.883442272
8.464959564 -11.81643033 2.816746493
6.532156438 -11.75480561 4.110392007
7.173013972 -11.8291534 4.065286863
7.77762302 -11.7962948 4.000654934
8.45500354 -11.83425748 3.968504891
6.469779028 -11.63346764 3.512075367
7.077536095 -11.67169906 3.45345145
7.696211522 -11.69190284 3.397493002
8.329666397 -11.68640223 3.33697564
6.472304506 -11.6298845 2.98406927
7.135593048 -11.77346611 2.942600779
7.767447283 -11.80954441 2.877856126
8.40589617 -11.81035228 2.809136887
6.490057169 -11.76390506 4.106592091
7.086699047 -11.76809112 4.036811099
7.732434132 -11.80641712 3.996023416
8.417540543 -11.85856851 3.967978464
6.434057359 -11.65326196 3.512075367
7.023189901 -11.66262966 3.444376286
7.649668957 -11.69919251 3.392775652
8.282515933 -11.69600457 3.332445927
6.420549823 -11.62064689 2.976631085
7.107507278 -11.80870822 2.945945313
7.730643515 -11.83249818 2.877656569
8.361121514 -11.82406125 2.806283255
6.467716782 -11.80892393 4.115361128
7.040220757 -11.77248638 4.030890216
7.687780999 -11.81717954 3.991664646
8.372778916 -11.87251134 3.964029777
6.374108253 -11.62885658 3.498809758
6.973942272 -11.66165624 3.43775397
7.568218847 -11.65251775 3.372490523
8.23034135 -11.69825807 3.325877972
6.375951708 -11.62403522 2.972474494
7.067733504 -11.82458239 2.944482139
7.673501494 -11.82410297 2.869876017
8.328192303 -11.85447686 2.807424565
6.410443947 -11.79006306 4.101915271
7.004070021 -11.79402987 4.030890215
7.642612669 -11.8269713 3.9870336
8.312511324 -11.86416792 3.952710853
6.328234127 -11.62967232 3.493197385
6.925261358 -11.66132485 3.431376987
7.52189713 -11.65935005 3.367773172
8.181020009 -11.704294 3.320442505
6.341193309 -11.64525561 2.972911993
6.985002657 -11.7680033 2.925043157
7.603210966 -11.79487876 2.857107512
8.23222411 -11.79463786 2.787258883
6.369245939 -11.80041728 4.098699958
6.941048297 -11.77000893 4.015383944
7.595377513 -11.83335863 3.981312508
8.134427594 -11.68612308 3.88505982
6.288389304 -11.64137545 3.490901413
6.882065721 -11.66999065 3.427697714
7.478226892 -11.67009928 3.364235042
8.132295493 -11.71093665 3.315233534
6.313324438 -11.67924786 2.976631085
6.944396787 -11.78179511 2.923161796
7.578613629 -11.83630486 2.861496797
8.188168063 -11.80854383 2.784595273
6.320818293 -11.79714278 4.090807826
6.901511963 -11.78545219 4.013410313
7.544554889 -11.83388869 3.973684072
8.072747265 -11.67373068 3.872687805
6.232996427 -11.62397173 3.479931775
6.82320525 -11.65173063 3.416169935
7.431430773 -11.67577136 3.359281895
8.067567203 -11.69414102 3.303456374
6.259007977 -11.66417 2.96788017
6.900808524 -11.79038486 2.920026591
7.493886442 -11.78342995 2.843142381
8.134636144 -11.80854635 2.77869775
6.253160921 -11.75737616 4.070346269
6.858088186 -11.79412935 4.009181245
7.489682264 -11.82771461 3.963876485
8.021599133 -11.67617763 3.865317332
6.192307944 -11.6336507 3.477125588
6.777192419 -11.65501053 3.411019143
7.391420783 -11.69194454 3.357394813
8.001917489 -11.67545158 3.291226453
6.219064986 -11.67556641 2.965911308
6.851336315 -11.78867326 2.914382986
7.43938432 -11.77736923 2.836159579
8.095597048 -11.82939639 2.777746696
6.200987556 -11.74605884 4.059823423
6.811317694 -11.79683482 4.002978548
7.431845392 -11.81642902 3.952434538
7.960722394 -11.66407834 3.853208766
6.150715068 -11.6414798 3.473809186
6.731223667 -11.65811709 3.405868348
7.337945647 -11.68658397 3.349375127
7.951259357 -11.67820759 3.285111492
6.180935102 -11.69027806 2.964817443
6.80193966 -11.78676831 2.90873938
7.389155878 -11.77772598 2.830772987
8.053747301 -11.84605904 2.775844117
6.15293756 -11.74215754 4.051931292
6.772707518 -11.81351469 4.001568544
7.393519038 -11.83591012 3.951344964
7.912448269 -11.67008092 3.847154365
6.09521158 -11.62261771 3.462584439
6.680960248 -11.65348195 3.398510272
7.291772567 -11.69254944 3.344657775
7.903388637 -11.68479755 3.280128785
6.115113548 -11.65216117 2.950378339
6.759426361 -11.79655087 2.906022124
7.326558532 -11.75792515 2.820598235
7.989342983 -11.82922025 2.766141674
6.121296635 -11.76946356 4.054854304
6.718871173 -11.80338701 3.991136779
7.325722483 -11.80784599 3.9344542
7.857205938 -11.66549598 3.837677943
6.059525127 -11.64126294 3.462584439
6.629829668 -11.64696354 3.390661533
7.221582403 -11.65951271 3.328854437
7.845230452 -11.6758428 3.270843095
6.057698789 -11.62932719 2.939877192
6.692737631 -11.76368442 2.892853789
7.283231866 -11.76868217 2.817805161
7.951373381 -11.85122958 2.765571136
6.049627757 -11.71935531 4.031177433
6.652886643 -11.77132313 3.973374594
7.256149468 -11.77620101 3.916473626
7.78972729 -11.64223923 3.822147117
6.000703639 -11.61512769 3.449318828
6.573555166 -11.63095726 3.380114848
7.177121668 -11.66754235 3.324844713
7.77692832 -11.65124894 3.25725419
6.06635666 -11.73366881 2.961535614
6.647957866 -11.76883548 2.889091541
7.23477754 -11.7709355 2.813017001
7.904631707 -11.86004693 2.761956472
6.009720668 -11.73020045 4.028546723
6.605942883 -11.77243399 3.966890084
7.154696793 -11.69171599 3.881057499
7.740621944 -11.64599739 3.815566289
5.955776381 -11.61541425 3.443961562
6.542110723 -11.65867814 3.382322127
7.129640406 -11.67043286 3.3194195
7.736302102 -11.66774719 3.255215949
6.022311304 -11.73659792 2.95759789
6.608472145 -11.783205 2.887628367
7.201693838 -11.79809521 2.814214102
7.812386231 -11.79992813 2.742361327
5.960267915 -11.72215641 4.019485385
6.550183069 -11.75744324 3.955048548
7.074320067 -11.64043145 3.856811281
7.698477738 -11.66002966 3.812407482
5.916604223 -11.62673794 3.441920699
6.485079877 -11.64058474 3.37128478
7.087249622 -11.6814508 3.316353199
7.683325135 -11.66539721 3.247968501
5.975648264 -11.73415049 2.952347199
6.554688193 -11.77181222 2.879894546
7.136001389 -11.77153276 2.802642695
7.753491031 -11.78939011 2.734370968
5.901012006 -11.69428287 4.003700647
6.507579854 -11.76573 3.951101528
7.03260792 -11.65219548 3.853542086
7.632511498 -11.63761078 3.797403086
5.86521468 -11.61376418 3.432736817
6.441828857 -11.64685225 3.367360409
7.035830642 -11.67733605 3.30904114
7.612304928 -11.63512003 3.233020848
5.930377735 -11.73413997 2.94775311
6.503402575 -11.76447853 2.873205713
7.076604864 -11.75475334 2.793465487
7.70762045 -11.79832823 2.730946799
5.85268867 -11.68753346 3.995223911
6.464525725 -11.77302422 3.946872458
6.983471162 -11.65143416 3.846186398
7.586239857 -11.64480557 3.792138564
5.817859318 -11.60836382 3.425848903
6.39113507 -11.63936801 3.35951167
6.986999205 -11.677185 3.302908537
7.570734462 -11.6494359 3.230529376
5.886475404 -11.73657971 2.943815152
6.466808507 -11.783518 2.872996857
7.034977431 -11.76715658 2.79127108
7.648942299 -11.78732999 2.722956439
5.816804239 -11.70543489 3.995223913
6.427917179 -11.79195923 3.94659041
6.941294539 -11.66205515 3.842644689
7.530561443 -11.63724721 3.782135712
5.776620484 -11.61490372 3.422532265
6.345651863 -11.64104502 3.354361109
6.946673343 -11.6910465 3.300785657
7.527563523 -11.6611513 3.227358647
5.846092741 -11.74584804 2.941627423
6.416591388 -11.77754095 2.866726211
6.991339888 -11.77604577 2.788278452
7.597850909 -11.78763682 2.717629691
5.77198352 -11.70521294 3.989085586
6.375728155 -11.78209159 3.936722505
6.896181296 -11.66755799 3.837468621
7.476566519 -11.63189108 3.772922502
5.735824285 -11.62216677 3.419470971
6.297450388 -11.63743796 3.347738559
6.893488839 -11.68301092 3.292530177
7.477031443 -11.66123208 3.221017189
5.807004828 -11.75760384 2.940095823
6.376241166 -11.78942933 2.864845087
6.946220565 -11.78224487 2.78468739
7.5346548 -11.76872351 2.707927246
5.742349715 -11.73575106 3.993470103
6.251924082 -11.63847233 3.882308232
6.838923704 -11.65214887 3.82548165
7.433057985 -11.6425769 3.768974051
5.690785315 -11.6206048 3.413858597
6.253460034 -11.64133085 3.343323761
6.822733104 -11.64457338 3.275783414
7.430755875 -11.66768551 3.216487712
5.769617453 -11.77273592 2.939439694
6.308586477 -11.7503479 2.850631526
6.890238166 -11.76967495 2.776707282
7.485869941 -11.77190228 2.703361293
5.692117135 -11.72406361 3.983531864
6.210319742 -11.64659242 3.878643023
6.789577528 -11.64979959 3.817853449
7.389037588 -11.65229111 3.764762387
5.650881052 -11.62931226 3.411307517
6.202662527 -11.63223209 3.335229689
6.780134343 -11.65369104 3.272481081
7.38242826 -11.67067159 3.211052007
6.258249734 -11.74289439 2.844151788
6.858036805 -11.79753534 2.778303256
7.444476796 -11.78651295 2.701458951
5.677288396 -11.78541165 3.998439226
6.141346062 -11.60284051 3.857779491
6.743683859 -11.65308674 3.812132358
7.340914731 -11.65531359 3.758444771
5.59921906 -11.61349722 3.401613417
6.153794467 -11.62635891 3.328116711
6.730738008 -11.65087656 3.265876648
7.331043426 -11.66852329 3.204257555
6.215791468 -11.74993699 2.841225674
6.816911186 -11.81003324 2.776308169
7.369152664 -11.74692368 2.687190554
5.613061823 -11.74410073 3.978562743
6.09456454 -11.60039342 3.850730885
6.693040613 -11.64785875 3.803687093
7.302052777 -11.67287312 3.756865249
5.551462957 -11.60532615 3.39421529
6.112234577 -11.63402625 3.324928099
6.6881926 -11.65967044 3.26257455
7.289538438 -11.68187051 3.20176632
6.151527134 -11.71527186 2.828266196
6.758720252 -11.79263464 2.767330518
7.322176759 -11.75197897 2.683195611
5.571678237 -11.75003225 3.974762825
6.056728161 -11.61478275 3.849321351
6.643922977 -11.64493793 3.796058892
7.257551045 -11.68128998 3.75239037
5.509613548 -11.60920026 3.390388672
6.06037612 -11.62177827 3.316098268
6.633152353 -11.64635743 3.253139613
7.246481118 -11.69258866 3.19859559
6.099285454 -11.70286958 2.820741466
6.716693354 -11.80309407 2.764936319
7.27627256 -11.75852604 2.679580947
5.494487619 -11.67967008 3.945239695
6.015773894 -11.62308502 3.845937955
6.600103669 -11.65103433 3.791427611
7.210027359 -11.68461824 3.74633597
5.469852313 -11.61730039 3.387837592
6.007313332 -11.60673914 3.306532676
6.583518217 -11.64212173 3.246299383
7.20087392 -11.69900499 3.194292373
6.050323149 -11.69633838 2.814679912
6.661650922 -11.79037278 2.757155766
7.108057024 -11.56583742 2.630688212
5.486130452 -11.75540059 3.965116414
5.974387281 -11.6303919 3.842272745
6.556780943 -11.65780997 3.78706884
7.167088221 -11.69516697 3.742650733
5.429683969 -11.62439085 3.385031407
5.969018337 -11.61994048 3.305060919
6.54110931 -11.65040134 3.242997284
7.138531887 -11.67782794 3.182515449
6.014410603 -11.71484522 2.814679912
6.61106521 -11.78511711 2.751170508
6.726789465 -11.02111541 2.502083561
5.443209364 -11.7574238 3.960147294
5.93824173 -11.6478118 3.841990934
6.510664141 -11.65938926 3.781075236
7.105093472 -11.67424656 3.728962645
5.382206758 -11.61555143 3.377633276
5.926736176 -11.6252428 3.301381881
6.490667805 -11.64410142 3.235685226
7.089023692 -11.67719325 3.176400488
6.554853017 -11.76938844 2.742791287
6.594220384 -10.87882893 2.465176364
5.394340777 -11.74625796 3.950793655
5.882121125 -11.62573839 3.828739629
6.461333646 -11.65490533 3.77317476
7.050779854 -11.66544184 3.719223009
5.34008406 -11.61795324 3.373551552
5.879225173 -11.62001586 3.294759567
6.44456189 -11.64525375 3.230496045
7.042101623 -11.68053655 3.171417781
6.50448943 -11.76371652 2.736806263
6.528916103 -10.84601973 2.453191063
5.336870607 -11.71575664 3.935009152
5.8386769 -11.62829674 3.823664889
6.40234976 -11.63252689 3.759553192
6.99807674 -11.65889468 3.710273014
5.291980954 -11.60700773 3.365643206
5.834412726 -11.61980457 3.289608773
6.401317664 -11.65134351 3.226722118
6.982717167 -11.66280865 3.160773106
6.463652769 -11.77502694 2.734811177
6.457326394 -10.8019574 2.438732643
5.271369627 -11.66671236 3.913086325
5.782007729 -11.60407712 3.809849727
6.361556439 -11.64282634 3.756556508
6.948444205 -11.65710657 3.702902542
5.257143077 -11.62495119 3.366153423
5.793980165 -11.62810414 3.286910826
6.353908452 -11.64959907 3.220825311
6.939436691 -11.67161886 3.157375881
6.422339457 -11.78533721 2.732616536
6.421149229 -10.81665214 2.437591096
5.226947793 -11.66363069 3.906655463
5.742977838 -11.6148805 3.807594285
6.325806799 -11.66228892 3.756556509
6.890042856 -11.64018005 3.690793739
5.22343205 -11.64543649 3.367428963
5.748825146 -11.62670701 3.2815147
6.306570941 -11.6476737 3.214928505
6.885768539 -11.66265854 3.149222678
6.374496048 -11.7834388 2.727629056
6.369986253 -10.80585445 2.430742284
5.191139622 -11.67961229 3.906655464
5.702245764 -11.62210881 3.804210888
6.267189648 -11.63928272 3.74293494
6.854787873 -11.662095 3.691056953
5.197897905 -11.68437569 3.374061766
5.703733197 -11.62514137 3.276118808
6.257464542 -11.64214368 3.208088275
6.838132602 -11.66356325 3.143787211
6.345731429 -10.84059685 2.434166689
5.146410849 -11.67535625 3.899932535
5.651443968 -11.60849388 3.79406117
6.216937342 -11.63130096 3.734216927
6.796606775 -11.64474358 3.678948152
5.156561939 -11.68788331 3.370490257
5.659129655 -11.62428076 3.270968013
6.202504665 -11.62527664 3.198181508
6.792026099 -11.66681043 3.139031
6.308003316 -10.85237598 2.432454606
5.095245322 -11.65604007 3.888240251
5.607873999 -11.60936361 3.788704382
6.172655677 -11.63417034 3.729040859
6.745853102 -11.63966522 3.670788036
5.105564363 -11.66910005 3.360541048
5.608681643 -11.61103506 3.262383513
6.151345826 -11.6150522 3.190162059
6.743039712 -11.66482502 3.13291604
6.271734072 -10.86657577 2.431313058
5.067448692 -11.69004315 3.894378812
5.565595892 -11.61267025 3.784193264
6.119448256 -11.61985094 3.718415974
6.699044034 -11.64107492 3.664733635
5.068585398 -11.68204773 3.359775724
5.568843376 -11.61944567 3.259930665
6.108899918 -11.62096705 3.186623928
6.694129355 -11.66264912 3.12680108
6.223722448 -10.86021268 2.425605794
5.013432754 -11.66336231 3.880348118
5.527470666 -11.62449157 3.782501683
6.076192585 -11.62407408 3.713784691
6.65707649 -11.65068265 3.661311613
5.027753658 -11.68599684 3.356459323
5.523594076 -11.61633904 3.254289443
6.065576315 -11.62500723 3.182614202
6.651082878 -11.6704384 3.123403854
6.181149838 -10.86304327 2.42199113
4.975001819 -11.67253037 3.87830201
5.481138227 -11.61883421 3.775171266
6.034741418 -11.63155808 3.710242984
6.597974964 -11.62993609 3.648413169
4.993395517 -11.70492371 3.357479753
5.478416414 -11.61306485 3.248648221
6.019604514 -11.62371378 3.177188989
6.588385186 -11.64331676 3.110720939
6.138135412 -10.86486035 2.418186208
4.942889985 -11.69654743 3.881225022
5.436925906 -11.61734659 3.769250379
5.993741966 -11.63975282 3.706973789
6.557528929 -11.6417177 3.645780788
4.949551714 -11.70148722 3.352122488
5.432899825 -11.6087438 3.242761664
5.971920549 -11.6187909 3.170820589
6.552633284 -11.66347473 3.110720939
6.08748369 -10.85281602 2.411337396
4.899221572 -11.69313425 3.875086697
5.39439072 -11.61917898 3.764457452
5.949246487 -11.64095166 3.701525211
6.494470512 -11.61294454 3.630513414
4.912132872 -11.71305042 3.351102056
5.386237025 -11.60161638 3.236139115
5.926531752 -11.61801392 3.16563141
6.492621538 -11.64014063 3.099170275
6.04842742 -10.86114911 2.409054539
4.858922061 -11.69751192 3.871578846
5.353099217 -11.62347308 3.760510429
5.906976072 -11.64627731 3.697438717
6.447572773 -11.61257203 3.624195799
4.872833912 -11.72003056 3.348806086
5.347373947 -11.61104122 3.234176928
5.889543539 -11.63354027 3.164923783
6.448386142 -11.64466741 3.095093557
6.010802335 -10.87192196 2.407342454
4.81281614 -11.68760385 3.863394412
5.310636692 -11.62500656 3.755717266
5.861700767 -11.64543675 3.691445348
6.410983963 -11.63060853 3.623669135
4.823958199 -11.70363646 3.33987731
5.304073045 -11.61063873 3.2295168
5.844226559 -11.63245101 3.159734604
6.406061144 -11.65244647 3.091922828
5.972695363 -10.88170515 2.405439874
4.772960639 -11.69257434 3.860179097
5.249207104 -11.58444038 3.73739122
5.812616622 -11.63668191 3.682999849
6.36647268 -11.63414275 3.618667827
4.77705759 -11.69152848 3.332224073
5.26442576 -11.61802615 3.22706395
5.792034198 -11.61727722 3.150771494
6.356749716 -11.64725104 3.085354873
4.731326572 -11.69297894 3.855502279
5.178244666 -11.52173015 3.712016806
5.76449629 -11.62945894 3.67509937
6.323841747 -11.64090445 3.614719377
4.739350924 -11.70164904 3.330948535
5.218424706 -11.61113163 3.220686966
5.756365814 -11.63499306 3.150771496
6.301498507 -11.63072908 3.075842685
4.690091165 -11.69412484 3.851117523
5.175684121 -11.61117322 3.73569964
5.713927053 -11.61687086 3.665564295
6.280771344 -11.64666502 3.610507476
4.698745593 -11.70446859 3.327632131
5.192644975 -11.64922413 3.226818854
5.707367099 -11.62555617 3.143459436
6.257943339 -11.63542472 3.071992465
4.649952989 -11.69779446 3.847609908
5.150511081 -11.65068982 3.743312105
5.670242036 -11.61791772 3.660388228
6.233172584 -11.64376553 3.603663433
4.658525105 -11.70804853 3.324570838
5.159625024 -11.67130665 3.228535707
5.658480571 -11.61592882 3.136147378
6.211207365 -11.63394748 3.066556997
4.611238198 -11.70488712 3.845271498
5.118980444 -11.67610282 3.746413456
5.627442627 -11.62053746 3.65575671
6.180670676 -11.63131238 3.593923794
4.612651736 -11.69709956 3.317427817
5.119122621 -11.67642646 3.225592428
5.610976036 -11.60873553 3.129542945
6.168188033 -11.63917865 3.062933274
4.566611595 -11.6967089 3.83796397
5.077779133 -11.67943377 3.742466197
5.58301398 -11.61953541 3.650035855
6.133705485 -11.62888736 3.587342966
5.079797127 -11.68407571 3.223384913
5.568190883 -11.61099915 3.12553322
6.125649036 -11.64511675 3.059536047
4.526219319 -11.69906908 3.834163818
5.039644429 -11.68967152 3.740774618
5.535746353 -11.61228993 3.642407653
6.089050255 -11.63055671 3.582078443
5.042775302 -11.69693423 3.222649151
5.519599401 -11.60082428 3.118221161
6.069607135 -11.62500169 3.049344368
4.486882298 -11.70397111 3.831240807
5.001871702 -11.70066678 3.73936485
5.496391948 -11.6213907 3.639955757
6.047556608 -11.63805423 3.578656421
