1.781596948 -10.06058329 0.281820655
2.179576765 -10.14071988 0.187387379
1.411727242 -10.11899504 0.006954491
1.738006562 -9.915980724 1.7667762
2.117978372 -9.922199321 1.680706665
2.496699668 -9.918940007 1.59531411
1.36693137 -9.93956945 1.482099394
1.735853557 -9.923046887 1.388707304
2.110575448 -9.912939467 1.298699992
1.932250233 -7.693498549 0.940550092
1.363638791 -9.915627277 1.107120792
1.751797792 -10.03276117 1.024991727
2.132355746 -10.03329028 0.936021939
1.928026656 -7.692592294 0.648524426
1.377711661 -10.05044664 0.748342977
1.749281547 -10.02661239 0.653191174
1.697038812 -7.998741071 0.447132825
1.934753484 -7.736606792 0.360462506
1.373275558 -10.04153035 0.37677033
1.749010234 -10.05615311 0.281544924
2.143692004 -10.12486156 0.186971934
1.381486729 -10.1292242 0.006958575
1.707409494 -9.92029578 1.766603347
2.087730658 -9.929616364 1.680870101
2.46363653 -9.916004911 1.593618954
1.336035438 -9.94077555 1.481661062
1.704731114 -9.924420513 1.388161087
2.078931622 -9.913543187 1.29793741
2.461779624 -9.930748388 1.213130714
1.332814489 -9.916809246 1.106790941
1.72000071 -10.03220435 1.024390912
2.099727646 -10.03101274 0.935204045
1.906331822 -7.706211518 0.649176442
1.347135677 -10.05660297 0.748490141
1.719017662 -10.03488262 0.65338328
2.090562732 -10.00464214 0.558902352
1.91172686 -7.74541566 0.360597958
1.341932686 -10.04173386 0.376621735
1.718655002 -10.06442821 0.281627626
2.110170029 -10.11964571 0.186755167
1.351593064 -10.14233582 0.006964701
1.677130474 -9.92645852 1.7667762
2.056057013 -9.930178806 1.679889488
2.43390897 -9.926395905 1.594081249
1.305145054 -9.941884807 1.48122261
1.671969422 -9.915927849 1.386249208
2.047504569 -9.915018028 1.297301906
2.429177113 -9.929572903 1.212070945
1.302642568 -9.922822966 1.107010882
1.686407144 -10.02075415 1.022688604
2.067535899 -10.03058002 0.934567944
1.884571404 -7.719769642 0.649828516
1.314982382 -10.05079971 0.74775444
1.688719446 -10.04306173 0.653575445
2.059658002 -10.01003152 0.558847754
1.888428061 -7.753185438 0.360688259
1.30969617 -10.03490351 0.376213086
1.687604421 -10.0686678 0.281600059
2.080118998 -10.13096891 0.186845483
1.320083346 -10.14345924 0.006962659
1.646668699 -9.931557377 1.766776201
2.025385005 -9.935472837 1.679726051
2.401120206 -9.924212152 1.59254011
1.273631628 -9.937992472 1.480053525
1.641054754 -9.918078616 1.385839486
2.017273705 -9.922224869 1.297428983
2.397770128 -9.93311756 1.211599949
1.272320028 -9.927758518 1.107120793
1.655655879 -10.0258802 1.022688603
2.034970359 -10.02809256 0.93375005
1.865546575 -7.744894342 0.651458584
1.281740177 -10.03599134 0.746356652
1.658062287 -10.04918039 0.653639461
2.027351895 -10.0084738 0.558410971
1.867667323 -7.771570028 0.361275246
1.278019287 -10.03193504 0.37595303
1.657192798 -10.07675686 0.28168279
2.048235526 -10.13338237 0.186773227
1.289461444 -10.15142953 0.006965382
1.611921934 -9.910313307 1.762109037
1.993923397 -9.936803808 1.67890899
2.369285447 -9.92576625 1.591615524
1.241540572 -9.929091872 1.478153805
1.610301365 -9.921111004 1.385566377
1.990521175 -9.946847175 1.299843808
2.362913317 -9.922072363 1.209362866
1.240992852 -9.924711301 1.106351178
1.622025343 -10.013234 1.020886159
2.003219536 -10.02940496 0.933295682
1.850072128 -7.785489485 0.654392683
1.249711103 -10.02998011 0.745620952
1.626107884 -10.04732391 0.653191174
1.99566071 -10.00975084 0.558137923
1.845198407 -7.783095734 0.361546179
1.245510381 -10.02192508 0.37543295
1.626110849 -10.0808066 0.281655193
2.017722291 -10.14256066 0.186827423
1.257204526 -10.14640646 0.006959255
1.581199662 -9.913267234 1.761763331
1.962663763 -9.939002082 1.678255245
2.339048892 -9.933949742 1.59176966
1.209276833 -9.918124138 1.475961784
1.579544863 -9.924048452 1.38529327
1.95903714 -9.948040985 1.299208303
2.335868138 -9.943775799 1.211128953
1.208854273 -9.914658831 1.104812066
1.591453702 -10.01914578 1.020986295
1.97071189 -10.0267095 0.932477788
1.829589547 -7.805684041 0.655615233
1.217490512 -10.02188649 0.744738147
1.590426625 -10.02171088 0.651205743
1.967248533 -10.02758409 0.558793156
1.822676291 -7.794556531 0.361817112
1.214276833 -10.02173173 0.375284356
1.594863307 -10.0837734 0.281600059
1.981025706 -10.1202481 0.186303588
1.224031182 -10.13333864 0.006947684
1.551235182 -9.920990905 1.762281891
1.929904154 -9.933355842 1.676294016
2.308560887 -9.941078874 1.591769659
1.179893125 -9.93062867 1.47727702
1.548327359 -9.923953643 1.384610439
1.928507767 -9.954004539 1.299208303
2.304229431 -9.946058068 1.210540296
1.176554574 -9.902528744 1.103052895
1.561473204 -10.02889654 1.021486973
1.939184892 -10.02879714 0.932114318
2.309567677 -9.991305745 0.838590884
1.187675856 -10.03349719 0.745326683
1.559212837 -10.02358509 0.651013637
1.932690672 -10.01396368 0.557701139
1.82030444 -7.89356076 0.366151859
1.18469641 -10.03533373 0.375655842
1.564225502 -10.09059443 0.281655193
1.94845558 -10.11842377 0.186159091
1.191300629 -10.12314183 0.006938154
1.521685765 -9.931544549 1.763319012
1.898308887 -9.933415851 1.675313518
2.276728041 -9.942336638 1.590844955
1.149875742 -9.938132566 1.477861504
1.517424665 -9.92571988 1.384200718
1.894803758 -9.943309733 1.297047634
2.275916028 -9.962762212 1.211717728
1.147196649 -9.914978145 1.104042451
1.529647321 -10.02675445 1.020786022
1.906361165 -10.02393768 0.93111463
2.279789913 -10.00223142 0.838916921
1.157915725 -10.04601051 0.745988772
1.527100309 -10.01944301 0.650437261
1.901773015 -10.01886501 0.557646541
1.808703846 -7.954633489 0.368725618
1.153902956 -10.03892069 0.375655842
1.533560852 -10.09732245 0.281710357
1.916287221 -10.11845952 0.1860507
1.160009935 -10.12476244 0.006936793
1.489893397 -9.927399632 1.761763329
1.866184829 -9.930466477 1.673842595
2.245344209 -9.945419188 1.590228523
1.119159123 -9.939647821 1.477569204
1.486819131 -9.92934812 1.384064221
1.861366325 -9.93347747 1.295014043
2.238358016 -9.938696239 1.207949879
1.118996766 -9.938205459 1.106241267
1.498731341 -10.03041687 1.020685888
1.874683897 -10.02484457 0.930660263
2.25127775 -10.01890245 0.839731955
1.127311871 -10.0514976 0.746135935
1.495175152 -10.01618446 0.649924899
1.870843345 -10.0236714 0.557591944
1.786475818 -7.969893079 0.369177183
1.121765702 -10.03049657 0.375210058
1.503016697 -10.10494641 0.281793059
1.887431592 -10.13608624 0.186267467
1.129606792 -10.13423606 0.006940877
1.458427273 -9.925102403 1.760553355
1.834096675 -9.927414522 1.672371791
2.210314309 -9.932007394 1.586992348
1.0875828 -9.93320033 1.476107934
1.456061934 -9.931902951 1.383791113
1.829085125 -9.929386748 1.293743034
2.204627885 -9.930975704 1.206183675
1.08644602 -9.922818941 1.104152363
1.468239472 -10.03693597 1.020886158
1.843019047 -10.02565175 0.930205897
2.220529532 -10.02576249 0.839731955
1.096252679 -10.05292629 0.745988772
1.464438956 -10.02072456 0.649924899
1.839001263 -10.02347049 0.557264297
1.763309202 -7.981188669 0.369448086
1.090555217 -10.02991687 0.375061435
1.471720061 -10.1075316 0.281737924
1.856685682 -10.14379613 0.186303588
2.236630997 -10.12859866 0.089977247
1.099372011 -10.14560794 0.006946323
1.42712932 -9.923681069 1.759516117
1.801868581 -9.923287239 1.670737431
2.176657765 -9.924264648 1.58468076
1.057102999 -9.936490289 1.476107934
1.425303031 -9.934361891 1.383517886
1.795786486 -9.919335033 1.291709442
2.17308841 -9.932841918 1.205595018
1.05357976 -9.903373074 1.101623695
1.436452718 -10.03449861 1.020185207
1.811012796 -10.02439847 0.929569737
2.186572499 -10.01792112 0.838509404
1.064039691 -10.04335003 0.745032416
1.432982465 -10.02023065 0.649604644
1.807355179 -10.02415215 0.556991308
1.740515066 -7.994370095 0.36980932
1.058938977 -10.02526543 0.374764246
1.440562626 -10.11100891 0.281710357
1.825556173 -10.14944461 0.186303588
2.204270528 -10.12955012 0.089925198
1.068659235 -10.15291094 0.006949045
1.396540022 -9.927037113 1.759343263
1.769509846 -9.91808558 1.668939755
2.143486943 -9.918340967 1.582677329
1.025190449 -9.925910443 1.474061947
1.393992149 -9.932802479 1.382698561
1.764303657 -9.918938739 1.290946861
2.143023371 -9.941403343 1.205830457
1.024008593 -9.914468114 1.102503221
1.40593646 -10.04082976 1.02038548
1.781120022 -10.03481097 0.930024163
2.157713634 -10.03335172 0.839242958
1.031385658 -10.02871021 0.743708179
1.403063614 -10.03050988 0.649988915
1.775548056 -10.02375088 0.55666372
1.717028143 -8.004555502 0.370035102
1.027259585 -10.01951962 0.374429893
1.409397762 -10.11439131 0.28168279
1.792669769 -10.14515243 0.186122956
2.174650504 -10.14310958 0.08998592
1.037099027 -10.15216252 0.006946323
1.3663461 -9.933226946 1.759688971
1.739584177 -9.926382647 1.669430062
2.11284222 -9.923904704 1.582523193
0.994240299 -9.924086718 1.473331312
1.362569406 -9.930162031 1.381742621
1.730450354 -9.904762279 1.288404959
2.110656939 -9.939188665 1.204770805
0.92512148 -9.234172605 1.026532929
1.376069726 -10.05199647 1.021086431
1.746049515 -10.015701 0.927752272
2.125062542 -10.03114931 0.838509404
0.973393001 -9.758926714 0.723476694
1.372554278 -10.03674502 0.650117005
1.744616173 -10.02816704 0.556609122
1.692668909 -8.010763558 0.370080253
0.994933388 -10.00671421 0.373835516
1.377281207 -10.11074365 0.281462193
1.759826882 -10.14075291 0.185942324
2.1429017 -10.14679893 0.089959895
1.005454803 -10.15032069 0.006942919
1.335864951 -9.937371572 1.75968897
1.708954937 -9.930700448 1.669266626
2.082183244 -9.92937253 1.582369055
0.962068216 -9.90936689 1.47070084
1.332887665 -9.94018681 1.382561948
1.698545414 -9.901226387 1.287261027
2.079543929 -9.942701217 1.20441747
0.894866158 -9.217181868 1.024334114
1.343641019 -10.04433619 1.019884801
1.71615365 -10.02591885 0.928206638
2.094277368 -10.03762194 0.838509404
0.889915383 -9.20795947 0.682425246
1.341887656 -10.04189723 0.650181079
1.714514468 -10.03740924 0.556827514
1.66747371 -8.012984729 0.369944772
0.887285775 -9.210971248 0.344004464
1.347046679 -10.12086655 0.281627626
1.725180599 -10.12540566 0.185563
2.109521922 -10.14255605 0.089864483
1.305114814 -9.939470038 1.759343263
1.678479953 -9.935897002 1.669266627
2.052909529 -9.941520302 1.583293762
0.930088433 -9.895528694 1.468216638
1.301613474 -9.938335915 1.381742622
1.669972728 -9.917150647 1.288659115
2.048429533 -9.946116915 1.204064253
0.86621201 -9.215925292 1.02389435
1.310885626 -10.03361219 1.018382763
1.683736504 -10.02131513 0.927297846
2.063673199 -10.0449762 0.838590884
0.861661605 -9.210646391 0.682425246
1.310814955 -10.04398764 0.650052989
1.682061003 -10.03277496 0.556281476
1.642280823 -8.015126218 0.369809319
0.859393782 -9.217629324 0.344153058
1.315474572 -10.1209868 0.281517328
1.691964352 -10.11783128 0.185328173
2.071574095 -10.11567242 0.089569559
1.272110134 -9.92388876 1.755886194
1.645568921 -9.926400716 1.666815207
2.022793286 -9.949707878 1.583601918
0.899098099 -9.891439393 1.467193703
1.270111894 -9.934420749 1.380650068
1.641641673 -9.934949304 1.290311356
2.015142951 -9.938728855 1.202415826
0.837663972 -9.215570383 1.023564499
1.280600312 -10.04153487 1.018783307
1.650067661 -10.00874771 0.925662116
2.030475082 -10.03953733 0.83761289
0.833399674 -9.213246975 0.682425247
1.279489833 -10.04400234 0.649796808
1.653217904 -10.04971131 0.55693671
2.021807575 -10.02369018 0.462193926
0.831200143 -9.221217974 0.344190192
1.285046698 -10.12993376 0.281655193
1.658810804 -10.11014863 0.18509336
2.040332314 -10.12100052 0.089560887
1.240069078 -9.915038941 1.753638979
1.612415287 -9.914848729 1.664036915
1.991870752 -9.953929536 1.583293761
0.868141686 -9.887252302 1.466170767
1.239382372 -9.93630531 1.380376961
1.610360418 -9.935043425 1.289675851
1.980949465 -9.926362082 1.200178744
0.818689341 -9.324040647 1.035328311
1.247944698 -10.03060575 1.017281269
1.619671458 -10.01572913 0.925843851
1.997135146 -10.03301171 0.836553299
0.804782686 -9.211786309 0.682130978
1.24817693 -10.04391925 0.649540628
1.621582793 -10.04980718 0.55666372
1.989878737 -10.02396714 0.461922994
0.802732627 -9.221733383 0.344115895
1.253471374 -10.12986035 0.281544924
1.628262086 -10.1181515 0.185147541
2.007520586 -10.11838494 0.08948282
1.21047902 -9.92564069 1.754848953
1.580124951 -9.908057904 1.662075685
1.960368773 -9.95514658 1.582523193
0.783108248 -9.244213528 1.370452384
1.207815936 -9.931210362 1.379147912
1.579249735 -9.936018217 1.289167541
1.948190103 -9.920699107 1.198765756
0.784626274 -9.26213267 1.02818207
1.215607788 -10.02154723 1.015979505
1.58955991 -10.02458497 0.926207379
1.965770071 -10.03615772 0.836308801
0.795863486 -9.443772214 0.699125395
1.215916367 -10.03581335 0.648772086
1.587153999 -10.03205069 0.555407851
1.959116277 -10.03002474 0.461922994
0.773350124 -9.211207602 0.343632978
1.224662116 -10.15251441 0.28206879
1.598770622 -10.13297548 0.185328173
1.976276735 -10.12351458 0.08947414
1.177697183 -9.909746932 1.751391884
1.549110493 -9.90895984 1.661422058
1.922488415 -9.923282984 1.576513018
0.754663278 -9.24558628 1.370306233
1.176409169 -9.926998952 1.378055477
1.547842918 -9.934936362 1.288404959
1.918309795 -9.929554339 1.199118974
0.755559865 -9.256571078 1.027302544
1.18508994 -10.0272053 1.016179776
1.558491455 -10.02744644 0.926025586
1.9338389 -10.03626956 0.835819804
0.751795901 -9.260287491 0.685367987
1.185121174 -10.03949626 0.648772086
1.55575668 -10.03292658 0.555189459
1.927769842 -10.03304438 0.461787542
0.745892373 -9.223497025 0.344004464
1.192692193 -10.14927379 0.28187579
1.565994803 -10.12696308 0.18512948
1.942568741 -10.1157815 0.089352703
1.147628595 -9.916248735 1.751910445
1.517059609 -9.902939474 1.659624266
1.889630848 -9.916516698 1.574509705
0.726372084 -9.248844884 1.370452385
1.145607316 -9.927608801 1.377645755
1.516457538 -9.933755755 1.287642378
1.886910433 -9.930515477 1.198530201
0.727157566 -9.258846272 1.027302545
1.154207595 -10.02980538 1.01607964
1.525771332 -10.0193821 0.924844221
1.900626496 -10.02942478 0.834760213
0.723149228 -9.259568224 0.685147331
1.153859084 -10.03911888 0.648515905
1.525268666 -10.03962605 0.555298655
1.89586685 -10.03302222 0.461516609
0.717049107 -9.218768582 0.343744409
1.160980882 -10.14791999 0.281737924
1.535217864 -10.13369697 0.185165616
1.912081455 -10.12464183 0.089378727
1.115547077 -9.905041234 1.749317524
1.490184284 -9.930961892 1.663546607
1.858652522 -9.919354328 1.574047294
0.697993619 -9.25103009 1.370452386
1.11403899 -9.921232467 1.376280094
1.485827439 -9.93738019 1.287515183
1.855705641 -9.932352512 1.198059321
0.69852405 -9.258059663 1.026972692
1.123320406 -10.03231053 1.015979504
1.495319017 -10.0259857 0.925025956
1.869482634 -10.03324919 0.834597253
0.694215666 -9.254781033 0.684632346
1.122388658 -10.03666102 0.648131634
1.493284788 -10.03635719 0.554861871
1.863434827 -10.0299516 0.461110224
0.688167504 -9.212952449 0.34344722
1.129289162 -10.1464665 0.281600059
1.503387325 -10.13341417 0.1850753
1.88283611 -10.1402918 0.089465467
1.084831973 -9.905479479 1.748798962
1.457415101 -9.91986978 1.660931752
1.828211724 -9.925009531 1.574047293
0.669822801 -9.256087249 1.370890835
1.083380861 -9.922633784 1.376006985
1.453178022 -9.927170104 1.285608786
1.825763058 -9.940929588 1.19841254
0.671337007 -9.277012652 1.028841775
1.09221343 -10.03274189 1.015679096
1.46311382 -10.02067168 0.924117223
1.83653754 -10.02717297 0.8336192
0.666534623 -9.2668152 0.685367988
1.089326111 -10.01922329 0.646786714
1.459320455 -10.01915369 0.5536606
1.830501073 -10.0238287 0.460568388
0.65947102 -9.209040304 0.343224329
1.098585126 -10.15385879 0.281710357
1.472291325 -10.13797934 0.1850753
1.850460472 -10.13913465 0.089404745
1.054437218 -9.908761055 1.748798962
1.427957281 -9.931130311 1.662075686
1.797225561 -9.927655355 1.573585
0.641764201 -9.263033121 1.371621469
1.052306489 -9.920000542 1.375187659
1.423277656 -9.935509414 1.286117096
1.795079722 -9.945506426 1.198294761
0.643490658 -9.28795236 1.029831212
1.061114238 -10.03307736 1.015378689
1.43278661 -10.02807152 0.924389855
1.803647299 -10.02098942 0.832641148
0.639676701 -9.291699626 0.687060103
1.057324678 -10.0106094 0.646018172
1.427589114 -10.01666392 0.553278415
1.799563373 -10.02841409 0.460523238
0.631214995 -9.211019459 0.343224328
1.065338748 -10.1372981 0.281158895
1.440478244 -10.13749907 0.184984984
1.81810976 -10.13787398 0.08934403
1.023728969 -9.909010375 1.748280402
1.396520426 -9.928625933 1.660931752
1.765894296 -9.928257874 1.57281443
0.613146605 -9.26199718 1.371183018
1.021563067 -9.920225898 1.374777937
1.390724604 -9.925094198 1.284210699
1.76265165 -9.940211253 1.196999552
0.614992571 -9.289883154 1.029831213
1.02941378 -10.02737747 1.014477467
1.400360203 -10.020584 0.923299328
1.771506535 -10.01862386 0.831989132
0.610512713 -9.283667479 0.686324404
1.025895122 -10.00685684 0.645569827
1.396713779 -10.02000822 0.553223817
1.768441269 -10.03192035 0.460432937
0.603866667 -9.226873121 0.343744409
1.036464397 -10.1623972 0.281765492
1.408544363 -10.13592823 0.184876593
1.788213104 -10.15029802 0.089404745
0.99302909 -9.909164758 1.747761843
1.365246724 -9.926999361 1.659951137
1.736956879 -9.942388683 1.57420143
0.585351468 -9.273707535 1.372644404
0.990926484 -9.921342424 1.374504829
1.360133695 -9.928332217 1.284083505
1.725672533 -9.908396731 1.19252527
0.585800002 -9.280813762 1.028621833
0.933192751 -9.3730765 0.947987175
1.369206434 -10.02187358 0.923026697
1.741102539 -10.02597572 0.832152092
0.581653635 -9.279523915 0.685882971
0.983440936 -9.891784229 0.637948538
1.367314445 -10.03413901 0.553769796
1.737144171 -10.03434559 0.460297456
0.575431779 -9.226688343 0.343670112
1.000067846 -10.11280594 0.280304134
1.37649898 -10.13326683 0.184750156
1.756723102 -10.15376559 0.0893874
0.962718745 -9.913144759 1.747934695
1.334127705 -9.926252502 1.659133958
1.704274264 -9.935010742 1.572197999
0.557371704 -9.283360302 1.373813491
0.959911012 -9.918419623 1.373685386
1.328483085 -9.92361035 1.282939691
1.693592082 -9.903855815 1.191347839
0.557443239 -9.284551708 1.028841774
0.88675813 -9.19267581 0.929462051
1.338453277 -10.02602652 0.923026696
1.707822382 -10.01653286 0.830929541
0.552469682 -9.269319248 0.685000167
0.885919945 -9.197422631 0.592989172
1.335601214 -10.03135874 0.553387611
1.705346753 -10.03371854 0.460026552
0.54765424 -9.237388305 0.344004464
0.883057583 -9.218278761 0.25543356
1.345404122 -10.13744278 0.184750157
1.724391366 -10.15220678 0.089326678
0.931379163 -9.906245673 1.746206161
1.302127082 -9.918560461 1.657172844
1.673786054 -9.940193113 1.572198
0.529000659 -9.287001546 1.374105791
0.92910757 -9.917372185 1.373139167
1.297388653 -9.922721734 1.282304186
1.663692566 -9.911942929 1.191701056
0.52810815 -9.271333772 1.027192633
0.858551221 -9.195352424 0.92946205
1.306915076 -10.02416127 0.922481434
1.677084121 -10.02172456 0.830929541
0.524141793 -9.27296143 0.68514733
0.857050051 -9.193142125 0.592540885
1.305334176 -10.03936974 0.553606002
1.674391311 -10.03791848 0.459981372
0.518582706 -9.226054076 0.343521517
0.853388107 -9.206014261 0.255019964
1.313140124 -10.13259836 0.184587585
1.691263549 -10.145613 0.089222593
0.900090971 -9.899247836 1.744477509
1.271064222 -9.917616092 1.656355666
1.640865966 -9.930658804 1.569886412
0.500239879 -9.283641355 1.373375156
0.898319636 -9.916229818 1.37259295
1.267065685 -9.927638569 1.282431262
1.633920835 -9.92092025 1.192172053
0.498912914 -9.259015598 1.025653404
0.830336218 -9.197943652 0.929462051
1.27527525 -10.02120832 0.921845333
1.64681447 -10.0297739 0.831174099
0.496062835 -9.281497367 0.685662315
0.828483497 -9.191752655 0.592284704
1.275659074 -10.05224206 0.554097442
1.645200992 -10.05286677 0.460432937
0.490275146 -9.227601581 0.343521517
0.825318906 -9.210579703 0.255075127
1.280667455 -10.12566775 0.184388893
1.657224131 -10.13299054 0.089066459
0.86687237 -9.869583499 1.738773223
1.240386584 -9.91951124 1.656028794
1.608968682 -9.926867944 1.568499529
0.471755711 -9.285132945 1.373375157
0.86797922 -9.91992588 1.372729445
1.2378277 -9.941322014 1.283702272
1.603317846 -9.924905517 1.192054274
0.470756453 -9.265465229 1.026203195
0.801767766 -9.196483163 0.929061508
1.244156546 -10.02210865 0.921572701
1.615718804 -10.03281022 0.831011079
0.467886288 -9.288951336 0.686103688
0.800193158 -9.193257083 0.592220689
1.243218496 -10.0432261 0.553387611
1.610551948 -10.03419371 0.459349235
0.462012929 -9.2300603 0.343558651
0.797574321 -9.219044218 0.25524056
1.24947396 -10.12855756 0.184370833
1.626128815 -10.1380277 0.089066459
0.784775043 -9.260766533 1.63108301
1.20970924 -9.921311448 1.65570204
1.577575401 -9.925903244 1.567574825
0.443031286 -9.281595298 1.372644404
0.781799567 -9.262157691 1.281368994
1.204214313 -9.91947199 1.280397672
1.571307576 -9.91996959 1.190876843
0.441759549 -9.254952303 1.024883788
0.77363294 -9.199890673 0.929161643
1.212805081 -10.02093518 0.921118276
1.584775593 -10.03673579 0.830929541
0.438867719 -9.279385532 0.685294436
0.772068403 -9.196663587 0.592284705
1.212161276 -10.04501094 0.553278415
1.576498819 -10.01836399 0.458401014
0.433833992 -9.234428731 0.343670112
0.771115171 -9.243363066 0.255847156
1.220184646 -10.14723305 0.18464178
1.593620137 -10.13407788 0.088988392
0.755878792 -9.257240412 1.630045888
1.178916192 -9.922037295 1.655211733
1.547876183 -9.935577206 1.568345392
0.41411232 -9.273028415 1.371183019
0.75313911 -9.2615507 1.280959272
1.1738927 -9.924104984 1.28052475
1.539647289 -9.916893758 1.189934852
0.413363675 -9.256264432 1.024883789
0.745565109 -9.204204621 0.929361915
1.181705675 -10.02164185 0.920845703
1.550317598 -10.0179119 0.828973495
0.410308797 -9.278695075 0.68514733
0.744332389 -9.204957168 0.592668976
1.178423326 -10.02388992 0.551913349
1.54514636 -10.01920493 0.458220383
0.405501132 -9.235716295 0.343670112
0.74363386 -9.256646449 0.256150455
1.188466018 -10.14596384 0.184551464
1.563892476 -10.14781439 0.089066459
0.727011504 -9.253624124 1.629008766
1.148016733 -9.921686873 1.654557989
1.518878011 -9.950046667 1.569886411
0.385578909 -9.272278288 1.370890835
0.724721535 -9.263817571 1.280959272
1.142078513 -9.915835202 1.278999585
1.508767438 -9.918624878 1.189581634
0.386161478 -9.286288329 1.02807216
0.717478078 -9.20843223 0.929562186
1.150159041 -10.01829489 0.920209543
1.518978212 -10.01867977 0.828647458
0.382209251 -9.288878865 0.68580942
0.716088478 -9.207197276 0.592668976
1.146075284 -10.01356971 0.55114892
1.51499753 -10.02784928 0.458401015
0.377123661 -9.235919035 0.343632978
0.716155224 -9.270843904 0.25648132
1.158239219 -10.15750959 0.184695961
1.53275204 -10.15256391 0.089066459
0.698173591 -9.249918623 1.627971647
1.116357716 -9.91437792 1.652760311
1.488198366 -9.953682813 1.569732392
0.357130136 -9.273417831 1.370890836
0.69651978 -9.268961164 1.281368994
1.111541336 -9.918306137 1.278872507
1.478769354 -9.926153816 1.189934852
0.358013978 -9.296368483 1.029061598
0.688629649 -9.202652428 0.928761099
1.119307435 -10.02078581 0.920118645
1.487941354 -10.0213211 0.82848444
0.354202836 -9.302962682 0.686765835
0.68835811 -9.216316688 0.593117262
1.114243816 -10.00711519 0.550602941
1.484079177 -10.03146153 0.458355864
0.34859798 -9.23203955 0.34344722
0.687191766 -9.266018872 0.25628832
1.126299422 -10.15405832 0.184569524
1.499111045 -10.14040237 0.088918997
0.669720828 -9.251034379 1.627798792
1.08496922 -9.908930015 1.651289389
1.455221166 -9.941581851 1.56711253
0.328888243 -9.280401933 1.371767621
0.667794979 -9.267102367 1.28082266
1.080677326 -9.917725753 1.278364081
1.450602409 -9.946366102 1.191818717
0.329069022 -9.285502583 1.027742307
0.660749123 -9.209683781 0.929261778
1.089096381 -10.0291232 0.920573071
1.457189372 -10.02583875 0.828484439
0.32572983 -9.305999589 0.686912941
0.660649841 -9.226348263 0.593629624
1.084289335 -10.0174353 0.550985126
1.454155117 -10.04189967 0.458626767
0.320307463 -9.234063766 0.343484354
0.659044282 -9.272071902 0.256398619
1.094177273 -10.1485199 0.184406953
1.465988815 -10.13109848 0.088797552
0.640927286 -9.2471495 1.62676167
1.053624626 -9.903383359 1.649818585
1.42121134 -9.921547699 1.563259806
0.300542837 -9.285321772 1.372352104
0.639360732 -9.269107347 1.28082266
1.050767258 -9.925926287 1.278999585
1.419940259 -9.949786524 1.191701056
0.300933638 -9.297396569 1.028951686
0.631877655 -9.202734715 0.928360557
1.058322333 -10.03241705 0.920573071
1.426143027 -10.02828831 0.828321479
0.296923295 -9.298980454 0.686324404
0.63234068 -9.228332233 0.593629624
1.052193888 -10.00780499 0.550275295
1.422919836 -10.04334606 0.458491315
0.292070997 -9.237999601 0.343595815
0.630730482 -9.276045423 0.256453753
1.062203811 -10.14387361 0.184262456
1.435040331 -10.13653884 0.088806232
0.612424236 -9.247107409 1.626415964
1.024148667 -9.915400955 1.651289389
1.390628739 -9.924882811 1.563105786
0.272025487 -9.285211421 1.372206071
0.611050797 -9.273001997 1.281095885
1.020411379 -9.930090356 1.279126663
1.388309852 -9.946228392 1.190759065
0.271622357 -9.271451115 1.025983255
0.602859772 -9.192715266 0.927158927
1.027335408 -10.03363615 0.920391278
1.395781857 -10.03557822 0.828565978
0.268220398 -9.293866261 0.685882972
0.603504233 -9.222261922 0.593117262
1.023613951 -10.0318465 0.551421968
1.389358623 -10.02787375 0.457588245
0.263699333 -9.237853213 0.343558651
0.60155674 -9.266963597 0.256150455
1.032998295 -10.16598406 0.184605645
1.403523772 -10.13792176 0.088780207
0.583865426 -9.245993821 1.625897287
0.995297505 -9.934202467 1.653904245
1.360709494 -9.933018192 1.563722218
0.243278224 -9.276113132 1.370744685
0.582971386 -9.280765192 1.281915212
0.916561446 -9.196871975 1.184310693
1.356043299 -9.937649599 1.189228417
0.243228777 -9.274227919 1.026203195
0.574778192 -9.196507376 0.927359198
0.949022893 -9.558092928 0.876498239
1.364852371 -10.03882593 0.82848444
0.239628823 -9.291654552 0.685662315
0.574027783 -9.205145653 0.591900433
0.982312679 -9.928618717 0.545579581
1.35818477 -10.02911885 0.457452764
0.235229495 -9.233623648 0.343372923
0.573123262 -9.268765557 0.256150455
0.996707479 -10.11736476 0.183666365
1.372414391 -10.14218045 0.088780207
0.555909784 -9.254623405 1.627107378
0.962812985 -9.916588359 1.650472209
1.327475945 -9.916580676 1.560485925
0.214795463 -9.275827236 1.370598536
0.554141223 -9.276577383 1.281095886
0.887674207 -9.192729467 1.183420916
1.322792505 -9.921091849 1.18675566
0.214797712 -9.275923706 1.026313106
0.546620048 -9.199221329 0.927459335
0.884318079 -9.193191627 0.842783287
1.333391044 -10.03802574 0.828076922
0.211121298 -9.292346281 0.685662315
0.545075466 -9.194909643 0.591131892
0.883069036 -9.213950726 0.506157188
1.325968264 -10.02234494 0.456956079
0.206877651 -9.233302698 0.343335759
0.54486028 -9.273473818 0.256233156
0.878574916 -9.207669548 0.167102428
1.340505898 -10.1403952 0.088728165
0.527794546 -9.261202069 1.627971645
0.929799728 -9.891993786 1.645896242
1.296789842 -9.918646778 1.560177767
0.185978993 -9.25863886 1.367968063
0.525454314 -9.274277337 1.280549551
0.859467132 -9.195409031 1.183420915
1.291579541 -9.91919537 1.186049226
0.186438369 -9.281508072 1.026862781
0.518842384 -9.208802186 0.928260421
0.856386545 -9.198836158 0.843055919
1.300665448 -10.02724293 0.826854371
0.182415857 -9.282979108 0.684926615
0.516695317 -9.193548979 0.590939785
0.854335854 -9.211645474 0.505884199
1.295213808 -10.02636611 0.456956079
0.178510654 -9.231895969 0.343261462
0.516740551 -9.281090286 0.256398619
0.850046269 -9.207334721 0.167048247
1.308621194 -10.1385093 0.088676115
0.499803304 -9.270646006 1.629354474
0.900250941 -9.903642132 1.647367046
1.267604647 -9.932379607 1.561718787
0.157488856 -9.254220625 1.36723743
0.496839783 -9.272878003 1.280139946
0.831073389 -9.196027192 1.183166761
1.260390599 -9.917200146 1.18534279
0.157911491 -9.27905532 1.02653293
0.491116983 -9.220286072 0.929261779
0.828250161 -9.202412617 0.843146758
1.268644442 -10.02129855 0.826039337
0.153703739 -9.269534478 0.683896646
0.488540404 -9.196087389 0.591003801
0.825714265 -9.210245708 0.505665749
1.265446821 -10.03822121 0.457317312
0.150170507 -9.23140141 0.343224329
0.488526636 -9.287622883 0.256536455
0.820817099 -9.198944659 0.166849555
1.277135665 -10.13950014 0.088650098
0.471359022 -9.27213578 1.629354474
0.867532745 -9.87982281 1.642954514
1.236760353 -9.933280225 1.561256492
0.128930988 -9.242789513 1.365483859
0.468038855 -9.267432672 1.279184006
0.802770249 -9.197545109 1.183039683
1.229592603 -9.918064474 1.184989574
0.129193469 -9.261606489 1.024554054
0.462627733 -9.217774283 0.928861235
0.800272332 -9.20788638 0.843419389
1.237527101 -10.02217624 0.825794839
0.125089306 -9.256999153 0.682940231
0.460225139 -9.195549699 0.59087571
0.797453707 -9.212735477 0.505665749
1.234644082 -10.04205636 0.457317313
0.121861451 -9.232817517 0.343261462
0.460277539 -9.294070104 0.25667432
0.79344933 -9.21138139 0.167030187
1.245778342 -10.14138596 0.088632746
0.442957279 -9.274522443 1.629527328
0.781253399 -9.221839112 1.533129977
1.204374501 -9.921334327 1.558790768
0.100509321 -9.237206773 1.364606957
0.439698443 -9.270804503 1.279457116
0.774798455 -9.202930616 1.183420916
1.197966991 -9.911931178 1.183812025
0.100811094 -9.264941532 1.024883789
0.43434583 -9.219150119 0.928861235
0.772268698 -9.213275714 0.843692021
1.206297278 -10.02196719 0.825468802
0.096730306 -9.261328106 0.683234499
0.431777295 -9.191934002 0.590555514
0.81013254 -9.705696584 0.532584397
1.203948566 -10.04678936 0.457362463
0.093524869 -9.232148396 0.343224328
0.431993464 -9.300430997 0.256812186
0.820296695 -9.877379211 0.179060252
1.214183608 -10.14118846 0.088598048
0.414237523 -9.269933414 1.628490206
0.755124616 -9.250741682 1.537542628
1.172073691 -9.909283002 1.556325043
0.072138578 -9.23351466 1.364022473
0.41121004 -9.271120251 1.279320503
0.746640753 -9.206252814 1.183547994
1.168248776 -9.92147768 1.184518579
0.072510422 -9.281109666 1.026642959
0.405403186 -9.205529876 0.927359199
0.744319717 -9.219571485 0.844055548
1.177053532 -10.03848985 0.826528393
0.068287069 -9.257592289 0.68294023
0.403312202 -9.187233477 0.590171243
0.746110627 -9.282149466 0.509214906
1.171961584 -10.04051264 0.456910928
0.06517942 -9.229394046 0.343112868
0.40311159 -9.293723194 0.256591618
0.741935005 -9.278865424 0.168168159
1.18283354 -10.14287968 0.088580703
0.385509186 -9.264271937 1.627280231
0.727203694 -9.258915621 1.538523242
1.140197312 -9.900072151 1.554321613
0.043819603 -9.23567092 1.364314774
0.382437861 -9.26442026 1.278227951
0.718238604 -9.20652179 1.183293837
1.137691491 -9.924028466 1.1844008
0.043974732 -9.268366659 1.025213639
0.377647838 -9.218659695 0.928560828
0.716647714 -9.229754881 0.844782547
1.146589365 -10.04502416 0.826772891
0.039876264 -9.255764275 0.682793126
0.375368532 -9.194410466 0.590555514
0.716552589 -9.270457544 0.508450477
1.1391223 -10.02619402 0.456098159
0.036823819 -9.219558168 0.342741382
0.374757965 -9.29891198 0.256701917
0.713004573 -9.2751168 0.168059783
1.151033382 -10.14049916 0.088528654
0.356743594 -9.256552866 1.625724431
0.697755095 -9.247330817 1.536235141
1.110369109 -9.908433181 1.555092181
0.018274535 -10.89970335 1.610113483
0.354504884 -9.278418308 1.280003333
0.689989989 -9.208682343 1.183293838
1.107019566 -9.925498224 1.184165361
0.015454587 -9.217767999 1.019606631
0.349175235 -9.214803116 0.928060149
0.688920209 -9.239854802 0.845509545
1.115326299 -10.04453224 0.826446854
0.01144887 -9.230910249 0.680953905
0.347949322 -9.21646046 0.591900433
0.688107894 -9.272611518 0.508450476
1.107040275 -10.01772665 0.455556323
0.008532888 -9.213631858 0.34251849
0.346487842 -9.307009929 0.256894917
0.684839871 -9.281249649 0.168132039
1.119149221 -10.13702522 0.088467939
0.328273397 -9.255635836 1.625378726
0.669452618 -9.250411099 1.536398575
1.080607458 -9.91768633 1.556016886
-0.021119751 -15.17926242 2.24229286
0.325620015 -9.267582166 1.278364564
0.661521656 -9.207787768 1.182912606
1.076028078 -9.923910942 1.183576586
-0.012807219 -9.204850415 1.018177312
0.320556715 -9.205887744 0.927058791
0.660427486 -9.239938729 0.845327811
1.084184027 -10.04493437 0.826202356
-0.016851168 -9.219931685 0.680144594
0.319775749 -9.220476927 0.592092598
0.659515009 -9.272686934 0.508341222
1.077047905 -10.02802899 0.455872406
-0.019717053 -9.20562032 0.342221272
0.317557353 -9.297040021 0.256591619
0.656009549 -9.278320185 0.168041723
1.087190472 -10.13245692 0.088398544
0.300258658 -9.268412099 1.627453084
0.64188791 -9.264232096 1.538359806
1.048823218 -9.908182091 1.554013456
-0.088828543 -19.91963545 2.942570905
0.297503409 -9.278438745 1.279730225
0.632793188 -9.202847195 1.182022829
1.044328757 -9.915314594 1.182163599
-0.041025081 -9.199798233 1.017627637
0.292154072 -9.201855636 0.926558112
0.632280509 -9.244902104 0.845600442
1.053361506 -10.04821322 0.826202356
-0.045073972 -9.206872658 0.679188238
0.291233987 -9.213435041 0.591580237
1.044826353 -10.01737574 0.45524024
-0.047855281 -9.18553 0.3414783
1.055995883 -10.1347498 0.088389871
0.613527756 -9.26714254 1.538523243
1.019329372 -9.920198901 1.555400456
-0.150804491 -20.03401997 2.959522465
0.268835207 -9.272376631 1.278774286
0.604491229 -9.203754996 1.181895751
1.014206962 -9.921435789 1.182516934
-0.069316804 -9.208573825 1.018617074
0.263779189 -9.197735286 0.926057433
0.603719853 -9.243816771 0.84532781
1.022327297 -10.04941446 0.826039337
-0.073177088 -9.188739585 0.677864
0.263051596 -9.217277895 0.591772343
0.60286532 -9.280544812 0.508559672
1.01670372 -10.04637576 0.456414243
-0.075969692 -9.177345807 0.341181082
0.599710448 -9.292148366 0.168222355
1.023992728 -10.12898839 0.088311804
0.584845112 -9.265042817 1.537869499
0.987811974 -9.912464595 1.553705182
-0.213881415 -20.18580137 2.982027272
0.240412363 -9.274147489 1.278910781
0.576375626 -9.207546199 1.182149906
0.914803252 -9.228806929 1.099624158
-0.243482938 -22.97954927 2.541980069
0.235559691 -9.198502014 0.926057434
0.576099612 -9.25755294 0.846418278
0.936413922 -9.494086144 0.78015282
-0.100663308 -9.1246494 0.673155591
0.234924603 -9.224027049 0.592156614
0.574390202 -9.282350598 0.508559672
0.961786139 -9.803878508 0.44526126
-0.103898278 -9.15708474 0.340438109
0.231951305 -9.29856996 0.256564051
0.571383772 -9.296938352 0.168276535
0.98784123 -10.08033212 0.087860746
0.556654115 -9.270732188 1.538523241
0.956541713 -9.906597065 1.5523183
0.211800117 -9.267908881 1.277954842
0.54818346 -9.210262101 1.182277102
0.884966588 -9.215754431 1.097740176
-0.313914146 -22.97372596 2.541430514
0.207248304 -9.195201772 0.925656889
0.547930379 -9.263252945 0.846781806
0.878751798 -9.198275947 0.755620205
-0.319012772 -22.62426893 1.669131503
0.206579881 -9.222709526 0.592028524
0.545851037 -9.28307251 0.508505074
0.876052855 -9.221021062 0.418665697
0.203160263 -9.287244802 0.256233156
0.542974988 -9.300643513 0.168312671
0.875097484 -9.221220979 0.080348907
0.528658169 -9.280275793 1.53983061
0.925684469 -9.904566602 1.551547732
0.183130444 -9.256629595 1.276316071
0.51998011 -9.212890709 1.182404179
0.856045644 -9.211504788 1.096915964
-0.381385228 -22.79277702 2.521530907
0.179153046 -9.201763926 0.926257706
0.519564237 -9.265884476 0.846872702
0.850986424 -9.205890079 0.756027721
-0.388798194 -22.64512152 1.670750008
0.178014027 -9.209330386 0.591131891
0.5173684 -9.284703727 0.508505075
0.8476676 -9.222671055 0.418620547
0.174704022 -9.289823719 0.25628832
0.514493687 -9.303263847 0.168330731
0.846254562 -9.21788803 0.080296865
0.500396526 -9.28579533 1.540484356
0.894404101 -9.897519293 1.550006712
0.154747199 -9.258138573 1.276452685
0.491290078 -9.20651803 1.181387323
0.828669722 -9.223978267 1.098093394
-0.4495397 -22.70206234 2.511636059
0.151003172 -9.207244111 0.926758384
0.490712872 -9.25947944 0.846145646
0.823360058 -9.215407239 0.756598257
-0.45782669 -22.62188715 1.669131504
0.149791821 -9.211829425 0.591259982
0.488565914 -9.280264307 0.508177428
0.819634022 -9.228213444 0.418755998
0.146060858 -9.281320444 0.256040157
0.485792793 -9.301802912 0.168276535
0.81788211 -9.219445021 0.080288185
0.471304992 -9.275463329 1.538523243
0.864034737 -9.900216111 1.550006711
0.1262618 -9.252627045 1.27563336
0.463042567 -9.207982137 1.181387324
0.828344719 -9.548997965 1.136478426
-0.518981989 -22.69163318 2.510646622
0.122715246 -9.204679551 0.926457977
0.462153913 -9.257957666 0.845873073
0.795340666 -9.22086887 0.756842756
-0.527576044 -22.6353306 1.670235024
0.121529621 -9.21224514 0.591259981
0.459943865 -9.278727372 0.508013634
0.791489047 -9.232674818 0.418846299
0.117598153 -9.282724395 0.256067724
0.456958487 -9.297258249 0.168168159
0.790105231 -9.227887994 0.080340234
0.442140424 -9.262083823 1.536071704
0.777958517 -9.24118832 1.44644686
0.097916454 -9.256933086 1.276179577
0.434884235 -9.211341641 1.181641597
0.778265755 -9.303108606 1.106924299
-0.588364497 -22.68099179 2.509657185
0.094679334 -9.224911118 0.928460693
0.433608941 -9.256347651 0.845600442
0.782907353 -9.413968278 0.772491478
-0.526252911 -19.95083081 1.472261176
0.093195556 -9.205589816 0.590811695
0.431474951 -9.28009483 0.508013634
0.809890654 -9.800553124 0.444493642
0.08916658 -9.288038869 0.256205589
0.428524793 -9.300614281 0.168204295
0.798144846 -9.670754866 0.084174221
0.413458571 -9.257483327 1.535091207
0.749842866 -9.246486679 1.446909156
0.069307841 -9.229452652 1.272355819
0.406447257 -9.208668645 1.18113317
0.74780655 -9.281695551 1.104098441
-0.658061336 -22.68305476 2.51009683
0.066298518 -9.214213571 0.927359199
0.405078191 -9.254649396 0.84532781
0.7418501 -9.2643214 0.760021411
-0.587810988 -19.96108417 1.473143921
0.064980931 -9.209824 0.591067875
0.402872052 -9.278382374 0.507849841
0.739180452 -9.292128399 0.421329757
0.060677387 -9.289268259 0.256233156
0.400332533 -9.309875921 0.168348791
0.737428651 -9.282403472 0.08077394
0.385096052 -9.259693457 1.535254642
0.721855774 -9.253668983 1.447679724
0.041018348 -9.235565842 1.273175146
0.378112146 -9.207890093 1.180879015
0.71955736 -9.286917157 1.10445166
-0.416587012 -12.98508212 1.43705825
0.038029393 -9.214373104 0.927359198
0.377088356 -9.265799491 0.846236543
0.713500608 -9.267547057 0.760102891
-0.734911367 -22.59961385 1.668027983
0.036693449 -9.201996566 0.590555514
0.374646005 -9.285561479 0.508177429
0.710440673 -9.29136404 0.421194305
0.032119162 -9.272417396 0.255764425
0.372007684 -9.317054239 0.168457167
0.708414253 -9.27764323 0.080713225
0.3574453 -9.280548357 1.538523242
0.692945753 -9.248942239 1.446600997
-0.453060318 -12.88809316 1.905013541
0.014739539 -10.73249082 1.479521656
0.349296113 -9.194139154 1.178972501
0.688630838 -9.256400261 1.100566032
-0.455165662 -12.94798334 1.433100264
0.00975043 -9.205492255 0.926457977
0.348846717 -9.271887935 0.846690909
0.685064799 -9.26969265 0.760102891
-0.460844121 -12.94859512 0.955807373
0.008458278 -9.198073931 0.590299333
0.346342528 -9.291655757 0.508450477
0.680908321 -9.279551816 0.420562138
-0.464419218 -12.93472518 0.481160444
0.003650261 -9.218492901 0.254275501
0.343495256 -9.320150334 0.168493302
0.679874473 -9.278775241 0.080704546
-0.471622613 -13.00244618 0.008856306
0.328971313 -9.281601602 1.538523243
0.664425532 -9.249053921 1.446292724
-0.494941148 -12.94793289 1.914073925
0.320741111 -9.185254307 1.177701491
0.660088128 -9.256488173 1.100330593
-0.493330766 -12.90580384 1.428592603
-0.018479675 -9.19950912 0.925857162
0.320330534 -9.270924408 0.846509175
0.656552144 -9.270757226 0.760021412
-0.499835658 -12.92818635 0.954409526
-0.01975891 -9.19705855 0.590235259
0.318005159 -9.297664659 0.508723467
0.652085606 -9.276614938 0.420336386
-0.504100203 -12.93323939 0.481160444
-0.024596971 -9.205466234 0.253917069
0.314190883 -9.300175597 0.168113978
-0.510410587 -12.97295974 0.008837247
0.300398431 -9.279608296 1.538032934
0.636317816 -9.254992038 1.446909156
-0.537560743 -13.0165316 1.924449544
0.292749065 -9.192143679 1.178464074
0.631213343 -9.251535406 1.099506382
-0.532840872 -12.90224383 1.428372781
-0.046683078 -9.195429016 0.92545656
0.291980249 -9.274849868 0.846781807
0.628780354 -9.282671252 0.760836445
-0.539787481 -12.93356634 0.954924509
-0.047948968 -9.191964759 0.589915062
0.623957264 -9.283555718 0.420562139
-0.544406227 -12.94660754 0.481717688
-0.052769974 -9.193351736 0.253586203
-0.550886712 -12.98731894 0.008848138
0.271754218 -9.274569393 1.537052318
0.608309377 -9.262816007 1.44783386
-0.578544843 -13.03853995 1.9279568
0.264489528 -9.191015958 1.17820992
0.603343467 -9.2613555 1.100448372
-0.573038725 -12.91444945 1.429911893
-0.074853523 -9.190267896 0.924955881
0.263665443 -9.280679313 0.847236173
0.600041336 -9.280578159 0.760510408
-0.579643161 -12.93583495 0.955218778
-0.076083154 -9.183791055 0.5894027
-0.584708913 -12.95785422 0.482200634
-0.080965727 -9.192146777 0.253558607
-0.594273271 -13.06348718 0.008901231
0.243066147 -9.266483939 1.535581514
0.580444139 -9.273513835 1.449220743
-0.6185438 -13.03670307 1.927956799
-0.236835646 -21.73019066 2.995778585
0.236341626 -9.193767276 1.178464074
0.575296299 -9.269109428 1.101154806
-0.612562809 -12.91064524 1.42969207
-0.101375102 -9.040758129 0.90993551
0.234964438 -9.272484475 0.846418278
0.572178656 -9.29232333 0.761325442
-0.61942243 -12.9359878 0.955365941
-0.103238684 -9.093705766 0.583638693
0.232318465 -9.296204811 0.508505075
0.567591426 -9.297180194 0.421013703
-0.624748926 -12.96198885 0.482423526
-0.108893421 -9.168865669 0.252924443
0.228335451 -9.29267856 0.167933347
0.565958402 -9.286419674 0.080704546
-0.634688245 -13.06859379 0.008905996
0.214498768 -9.261268529 1.5346009
0.551638488 -9.269332875 1.448296154
-0.659285618 -13.04956466 1.93014882
-0.300126057 -21.48767123 2.962457205
0.208224233 -9.198414945 1.1789725
0.546330114 -9.261909234 1.100095155
-0.651818144 -12.90175649 1.428922455
-0.32787189 -22.95767414 2.310737586
0.20636055 -9.266191716 0.845782176
0.54256166 -9.27513066 0.759776913
-0.659208086 -12.93601904 0.955513046
-0.324986788 -22.53529246 1.446383859
0.2038189 -9.297871549 0.508559672
0.539238825 -9.301869757 0.421149154
-0.66471754 -12.96400297 0.48257212
0.199824834 -9.293335536 0.167933347
0.537985281 -9.29709738 0.080782613
-0.672767799 -13.02763743 0.008879449
0.186025134 -9.258924118 1.534110593
0.523531964 -9.276900667 1.449220742
-0.699000338 -13.04155363 1.929272036
-0.370620737 -21.75507141 2.999465729
0.179828265 -9.190085459 1.177828569
0.51802324 -9.265525106 1.100330594
-0.691450309 -12.90068831 1.429032366
-0.395887018 -22.81728335 2.296718572
0.177778361 -9.258816034 0.845055178
0.513993132 -9.274761255 0.759613894
-0.698676836 -12.92995198 0.955218778
-0.394349432 -22.54716158 1.447216417
0.175066641 -9.286473405 0.507904439
0.510534338 -9.300487731 0.421013703
-0.704650107 -12.96489602 0.482683581
0.171220221 -9.28890607 0.167843031
0.509623797 -9.301699682 0.080808638
-0.713661718 -13.04248674 0.008891021
0.157483951 -9.251560005 1.532803224
0.495068366 -9.278463612 1.449220743
-0.738000413 -13.02156965 1.926641564
-0.43194634 -21.48443473 2.962320828
0.151730809 -9.196544095 1.17859115
0.489489797 -9.265087355 1.100095155
-0.730013481 -12.88064437 1.427053492
-0.463693852 -22.70852735 2.285903906
0.149275487 -9.253343385 0.844509915
0.48537983 -9.273308928 0.759369396
-0.738285255 -12.92675212 0.955145226
-0.463787977 -22.55881468 1.448048974
0.14627592 -9.267997545 0.50686702
0.481636544 -9.295027293 0.42069762
-0.744708992 -12.96766159 0.482869339
0.142567846 -9.279390163 0.167662399
0.481187467 -9.305216205 0.08082599
-0.753210557 -13.03224914 0.008885576
0.128962178 -9.242134487 1.531168864
0.466550513 -9.278952205 1.449066724
-0.777061424 -13.00443092 1.924449543
-0.490972274 -21.18589876 2.921351933
0.123502171 -9.195974597 1.178464073
0.461260023 -9.270512286 1.100566033
-0.7685787 -12.86246913 1.425294321
-0.533500659 -22.71296626 2.286504721
0.120989992 -9.261724262 0.845236913
0.457319791 -9.282717495 0.760021411
-0.77782062 -12.92243501 0.954998062
-0.533207388 -22.56626539 1.44862547
0.117803331 -9.265407495 0.506703226
0.453020275 -9.294465382 0.420607318
-0.784731123 -12.96930609 0.483017933
0.114098411 -9.279784343 0.167662399
0.452442906 -9.302653511 0.080791293
-0.792946338 -13.02588392 0.008882852
0.100542669 -9.236567974 1.53018825
0.437894537 -9.276391387 1.448450291
-0.81769924 -13.01383339 1.926203112
-0.563426392 -21.46850661 2.960545327
0.095237351 -9.191351477 1.177828569
0.432353271 -9.261964428 1.099388603
-0.80859758 -12.86897828 1.426283876
-0.60339184 -22.71917851 2.287305806
0.092535044 -9.258068313 0.844873384
0.428976611 -9.287064411 0.76026591
-0.817462464 -12.9199885 0.954998062
-0.532762351 -19.95482294 1.281084681
0.089434696 -9.271715682 0.507030813
0.424138565 -9.287828067 0.420246084
-0.824833746 -12.97182366 0.483203661
0.085655571 -9.283089596 0.167716579
0.423991668 -9.30599547 0.080808638
-0.833415998 -13.03137333 0.008888298
0.072150824 -9.229927109 1.529044316
0.409345796 -9.275717376 1.448142018
-0.858271936 -13.02113536 1.927664499
-0.630507337 -21.5082646 2.966280961
0.067038236 -9.191600171 1.177828569
0.404368519 -9.273168565 1.100566034
-0.848205992 -12.86842115 1.426503699
-0.673267263 -22.72318917 2.287906622
0.06429681 -9.282209562 0.847054438
0.400696945 -9.293315312 0.760673427
-0.856238222 -12.90448283 0.954041705
-0.594069491 -19.95608712 1.281276846
0.061067866 -9.283928523 0.507686047
0.395301832 -9.281100608 0.41988485
-0.864826309 -12.97222357 0.483315122
0.057175051 -9.283309216 0.16771658
0.395184595 -9.301258358 0.080756595
-0.873859998 -13.03573976 0.008893062
0.0438241 -9.228132302 1.528717445
0.380886374 -9.27692922 1.448142017
-0.898420458 -13.02140155 1.92810295
-0.418805121 -12.93185692 1.783646966
0.038867827 -9.19870623 1.178718229
0.375796305 -9.271388874 1.100212816
-0.88727126 -12.85980879 1.425844114
-0.426314774 -13.03713776 1.312782502
0.03575376 -9.265432913 0.845509544
0.372024067 -9.290517251 0.76034739
-0.895824578 -12.90179594 0.954041706
-0.741272272 -22.57237155 1.449394012
0.032507788 -9.262105183 0.506484776
0.366944291 -9.285264565 0.420020302
-0.904064192 -12.96153366 0.483017933
0.028700172 -9.285440457 0.167752715
0.366489341 -9.298430005 0.080721898
-0.915597633 -13.05793654 0.00891008
0.018288492 -10.87971356 1.802297995
0.352348331 -9.27607966 1.447833861
-0.939432151 -13.03338408 1.93029497
-0.458477523 -12.93051148 1.783646966
0.01064182 -9.194814011 1.178209918
0.347907902 -9.287383258 1.10197902
-0.927077688 -12.86198292 1.426393788
-0.463606898 -12.96019858 1.30517218
0.007288264 -9.215706315 0.840965764
0.34351942 -9.291614447 0.760347389
-0.93511402 -12.89500776 0.953747437
-0.464873293 -12.94500791 0.83129927
0.004073812 -9.221222165 0.504246144
0.338164685 -9.27835968 0.419659068
-0.944623847 -12.96966306 0.483426553
-0.475244418 -13.04338041 0.360016853
2.11172E-4 -9.218495619 0.166542472
0.337706225 -9.292516018 0.080661176
-0.954997434 -13.04608952 0.008903953
0.323784652 -9.274154796 1.447371567
-0.978672079 -13.02057628 1.928833584
-0.49742095 -12.91023605 1.781052375
-0.017535306 -9.177941777 1.176049251
0.31954951 -9.292376503 1.102450016
-0.968395791 -12.8838566 1.429142396
-0.501241979 -12.90403279 1.299664711
-0.02094434 -9.197759459 0.839329974
-0.974670951 -12.89207859 0.953747437
-0.501903482 -12.87471451 0.826880182
-0.024192918 -9.212204722 0.503754704
-0.984863646 -12.97268217 0.483649474
-0.512417434 -12.96994492 0.358031601
-0.028046418 -9.210453978 0.166397976
-0.994941708 -13.04210122 0.008903273
0.295141747 -9.269178614 1.44644686
-1.018073818 -13.01060896 1.92781065
-0.539661968 -12.97199422 1.789792323
-0.045682876 -9.175860524 1.175794977
0.290915047 -9.289343119 1.10197902
-1.009624175 -12.90262461 1.431561034
-0.540536954 -12.89547583 1.298963761
-0.049082725 -9.182714132 0.837966816
0.286162844 -9.282589266 0.759450875
-1.014453354 -12.89200994 0.953968094
-0.541567952 -12.87710298 0.827136363
-0.052421339 -9.206096442 0.503427117
0.281772028 -9.298234101 0.420471837
-1.024265094 -12.96461908 0.483463717
-0.5521212 -12.96631407 0.357976467
-0.056279116 -9.206325722 0.16632572
-1.03392103 -13.02602841 0.008894424
