0.845431428 24.20468925 4.69330909
1.248785983 17.32631663 2.877662704
0.618589388 17.33722242 2.705808008
2.538339505 17.31202523 2.584686737
1.254532899 17.27986215 2.220042247
0.602632664 16.64541814 1.974943282
2.534181118 17.28366366 1.932239097
1.016167728 13.92595936 1.27417119
0.489251822 13.33348876 1.091089211
2.541733069 17.28263013 1.288633095
1.895003537 17.23245529 1.112583304
1.2690717 17.30860966 0.949031084
2.556254837 17.3435193 0.65171386
1.946557763 12.93787016 3.999023828
1.440035366 12.86817216 3.805056797
0.940443129 12.74785525 3.61925101
2.004965896 13.35618395 3.563352051
1.470926139 13.14421271 3.346267039
1.300901398 17.30863069 2.875374601
2.585725948 17.26599898 2.57898734
0.654164956 16.65539937 1.976356271
1.31392347 17.27611873 1.581059174
0.694822462 17.47281903 1.429981314
1.794586074 15.8710045 1.025034214
1.321939604 17.30164781 0.94886729
2.613468189 17.36227716 0.652716887
1.97651424 12.86850596 3.979439646
1.464050415 12.7293002 3.765303361
0.979917273 12.74970716 3.620613098
0.49537696 12.61379778 3.44440745
2.126931968 13.87850181 3.704426947
1.564525862 13.60289166 3.464243468
1.356844847 17.34094919 2.88142161
0.724874387 17.33112742 2.705499735
1.097118383 13.86287465 1.268991308
0.74880898 17.47956708 1.430714809
1.833249533 15.77918268 1.019462372
1.375726125 17.30646906 0.949358671
3.367021834 21.91150059 0.824124706
2.017465833 12.87182928 3.982362657
1.503884216 12.73141793 3.767276988
1.019334897 12.75047706 3.621702907
0.535705862 12.65077267 3.454936728
2.170098282 13.87573271 3.705447379
1.607161386 13.605729 3.466205651
1.410199657 17.33867169 2.881748482
0.778485285 17.33869259 2.707040872
2.03212103 17.1008203 2.374008203
2.699584325 17.30085391 1.936856788
1.424636492 17.32529573 1.586330012
0.617709009 13.45386968 1.101358615
2.052462658 17.20536572 1.112006809
1.429883496 17.3151026 0.950068502
3.441195753 21.94549333 0.825796437
2.096805055 13.11488287 4.059531122
1.555754021 12.83246737 3.798572289
1.067126484 12.85180658 3.65139794
0.587078074 12.92566301 3.530484663
2.226063595 13.95303545 3.727896873
1.637811174 13.50930641 3.442904766
0.831675973 17.33622268 2.707040872
2.756399686 17.31604658 1.939495365
2.113235246 17.2843293 1.752479529
1.478037011 17.32382146 1.586602644
0.659030738 13.45290723 1.101440155
2.902657587 18.18374723 1.358376488
2.11190701 17.25346884 1.115529324
1.483936318 17.32157842 0.950669138
3.508823156 21.93680673 0.825870764
2.105024941 12.91206452 3.998731526
1.649813945 13.26750348 3.928828227
1.119264438 12.99610145 3.693352222
0.621917568 12.82455049 3.503371703
2.168560473 13.32961971 3.563096943
1.683077615 13.53500318 3.450753505
1.211286637 24.08298023 4.672763129
0.885211481 17.34049665 2.708119715
2.156557383 17.24432133 2.39572146
2.80664493 17.28984927 1.937516372
1.530915749 17.31622982 1.586330013
0.703824386 13.51850406 1.106982433
2.955867267 18.15900758 1.357199297
2.166197161 17.2577997 1.11623385
1.53662968 17.31197097 0.950396089
3.525918917 21.61821932 0.814280105
2.434811868 14.65175716 4.539788159
1.690995537 13.2661863 3.929955947
1.163405708 13.04052412 3.706973789
0.637560021 12.36301528 3.377809274
2.233648115 13.46884913 3.602128688
1.745065474 13.69037526 3.491714293
0.938834382 17.34559217 2.709352577
2.21373422 17.27103188 2.400364662
0.887405156 16.23785442 1.92819834
2.865193562 17.31449753 1.941254418
1.583489435 17.30550008 1.585784749
0.778164607 14.11238256 1.155803048
2.455548148 14.79889924 1.106623635
2.223716866 17.28670434 1.118539358
1.588273527 17.29126607 0.949522464
3.566332242 21.45154791 0.808410478
2.944215941 17.38712146 5.390103252
1.665222926 12.75196153 3.779118288
1.208272133 13.08958968 3.721957681
0.675959957 12.36967068 3.380178439
2.37162912 14.03396891 3.755193652
1.776263059 13.60228614 3.470620687
0.991368381 17.33079352 2.707503166
0.944371878 16.35897953 1.942916515
2.920118226 17.31640777 1.942463796
1.016322192 17.45706928 1.429981314
2.531198957 14.97026355 1.120013223
2.277523384 17.28573748 1.118923689
1.642069948 17.29426519 0.949959307
3.579551061 21.13014422 0.796708357
2.996894644 17.37423707 5.388934047
1.254090328 13.14520642 3.738848445
0.75921705 13.15248863 3.594713673
2.474384248 14.37348121 3.848052922
1.759013806 13.15571793 3.358040148
2.325340182 17.29934119 2.406236911
0.965022585 15.87031142 1.885221364
2.975418155 17.32010276 1.943892998
1.68906325 17.28951127 1.585239486
0.876449856 14.29834515 1.17145177
2.589303345 15.03318981 1.125310168
1.967576648 14.58762369 0.944658245
1.697653567 17.31498308 0.95137897
3.578766837 20.73894632 0.782368672
3.049522314 17.3611938 5.387764843
1.805478709 13.19492772 3.913603531
1.300638332 13.20449426 3.756828782
0.800677181 13.16839357 3.599714981
2.323791019 13.255338 3.550596658
1.791481089 13.09262923 3.343323761
1.096377434 17.30367615 2.704266872
3.031281942 17.32655716 1.945652168
0.874530531 13.58443997 1.113176667
2.636446201 15.03106923 1.125751482
2.007410183 14.5459301 0.942352618
1.751671509 17.31863351 0.951870351
1.127217831 17.36768906 0.786668887
3.557456684 20.24461375 0.76412828
3.104959507 17.3639943 5.391564759
2.428421895 17.35107707 5.148498764
1.330639506 13.09705925 3.727406261
0.813088951 12.72781508 3.479943976
2.36886386 13.27289445 3.557229462
1.89493006 13.539277 3.458847577
1.784329022 17.32499961 2.885180518
1.150441678 17.31502 2.706578579
3.084250615 17.31619776 1.945542139
0.902451109 13.37783753 1.096468412
2.056908088 14.57428814 0.944594229
1.804899594 17.31417148 0.951924949
1.177853292 17.32527912 0.784907868
3.535611286 19.76438169 0.746407938
7.483564646 41.74551927 0.02886825
2.499520185 13.73485147 4.267067347
2.484360706 17.36253917 5.154137835
1.370513849 13.09004463 3.726588962
0.849813007 12.69060785 3.470467553
1.922452559 13.43551204 3.4338296
1.838513835 17.32925443 2.88681464
1.204106302 17.31929278 2.707811439
1.849060156 17.34210443 2.234785813
3.141084537 17.3271906 1.947850983
0.94664546 13.41974589 1.100136124
2.502726292 17.34834556 1.124879862
1.856411687 17.29366051 0.951105921
1.231071757 17.32257969 0.784953048
3.567950812 19.59810442 0.740538311
2.509610402 13.5540952 4.213283451
2.53858834 17.36148085 5.156111464
1.41561721 13.13169641 3.739665743
0.885844607 12.64655936 3.459148396
2.549542811 13.79531798 3.701365653
1.966468334 13.44873566 3.438735062
1.258022557 17.32635741 2.709506596
3.195490894 17.32431458 1.948620598
0.988251279 13.42274193 1.10062512
2.558121164 17.35539463 1.125840451
1.910445685 17.29681542 0.951597361
1.284063108 17.31672881 0.784862687
3.560354763 19.22153953 0.726718676
2.807468277 14.90716805 4.636540804
1.989515363 13.32075675 3.95786785
1.438503922 12.97045628 3.694986818
0.88579916 12.11266792 3.313843714
2.640979501 14.04875454 3.771520556
1.945139138 13.02363571 3.331550651
2.413314269 12.85869539 2.933314005
1.311620506 17.32832889 2.710431185
3.250275638 17.32322141 1.949610035
1.080578192 14.08645544 1.155314051
3.420529636 18.1868502 1.365144835
2.613137394 17.35930751 1.126608993
1.963389908 17.28988186 0.951542764
1.337568714 17.31768857 0.78508847
3.550482551 18.84521064 0.712899101
3.382923828 17.66459441 5.497379214
2.647961161 17.3645467 5.161750064
1.487772512 13.04915242 3.718688484
0.922882857 12.1089311 3.313580499
2.637772373 13.79840922 3.706467811
1.983478447 13.00706449 3.328852469
2.464277533 12.91161531 2.947096746
1.365242518 17.33013202 2.711355771
3.301730649 17.30438173 1.948620598
2.318867638 15.10383755 1.537888145
1.198391921 15.01797163 1.232009016
3.478558273 18.18802482 1.36602758
2.795677494 18.19258084 1.181239153
2.012722605 17.2520392 0.949795513
1.39093233 17.31649062 0.785223951
3.479105996 18.15996513 0.687377346
3.35485315 21.75547611 0.60717857
3.43929518 17.66539692 5.500886828
2.072245311 13.31493418 3.959841477
1.523098778 13.0043901 3.707246302
1.067180989 13.45724929 3.683423266
2.643937735 13.60421759 3.656466666
2.105221552 13.52681816 3.463507708
2.057998799 17.36417084 2.896620558
1.418887888 17.3317706 2.712280595
3.354425698 17.29221915 1.948400657
2.367350819 15.11041464 1.539290047
1.226925037 14.80265866 1.214648687
3.534151493 18.17628807 1.365954028
2.849313942 18.17011597 1.180342461
2.03536069 16.9929703 0.935872106
1.443885979 17.31014996 0.78513365
3.538815344 18.16980463 0.688157511
3.44007242 21.86258923 0.610459745
3.481409361 17.59378445 5.481886779
2.142573683 13.4942363 4.015101659
1.518079056 12.62613589 3.60072565
1.087549312 13.20008291 3.613929498
2.694469005 13.64062574 3.668456737
2.148687516 13.53274206 3.466696316
1.47255614 17.33324272 2.713205182
2.114495829 17.30874678 2.234404581
3.415345025 17.32182889 1.952908319
1.149821075 13.37385566 1.097691022
3.593379195 18.18297006 1.367278323
2.905045592 18.16128812 1.180342461
1.988225748 16.17893873 0.891371756
1.498535618 17.32355367 0.785946419
3.591826113 18.14513776 0.687637401
3.489387983 21.7413903 0.607371569
3.004706139 14.94378605 4.659048471
2.808741531 17.34606993 5.163723693
1.562108871 12.66439076 3.612985131
1.120400151 13.10729034 3.589448916
2.833160574 14.11482896 3.798306886
2.190040354 13.52512989 3.466450985
3.469838289 17.31809001 1.953677933
3.650913923 18.18066028 1.367940412
2.963962976 18.1719891 1.181623365
2.171795521 17.23575627 0.949959307
1.552122151 17.32384958 0.786172201
3.602352396 17.90968545 0.679130208
3.527822343 21.55794644 0.602546394
2.890346969 14.15024572 4.414389046
2.863976768 17.34967739 5.167389139
1.639343411 12.96309256 3.699618335
1.162394816 13.1239714 3.594976888
2.932863345 14.38271562 3.872798387
2.216050934 13.42460926 3.442414101
1.672163473 13.14336276 3.215871927
2.60949392 12.81633985 2.932438773
1.579779992 17.33372112 2.71474632
3.52354791 17.31028605 1.954007785
1.861611583 14.45706949 1.330150799
3.632118264 17.80391455 1.340425597
3.02100924 18.17068662 1.182135727
2.213539083 17.14285787 0.945208936
1.60471055 17.31303849 0.785901239
3.625872292 17.74483313 0.673297715
3.546251227 21.26108158 0.594550312
2.845356435 13.71525584 4.281390577
2.230231647 13.2572798 3.950537668
1.74340164 13.45418521 3.841282604
1.227222233 13.38838026 3.668418871
3.004624924 14.50715098 3.908768834
2.256583337 13.41392325 3.441433009
2.650580119 12.81687358 2.93440787
2.274487821 17.29445376 2.235167045
3.576034722 17.2964734 1.953677933
2.279673534 17.28487701 1.59096475
3.653538143 17.63253443 1.328360306
3.078742141 18.17313919 1.182904268
2.269395054 17.16073205 0.946574001
1.657723345 17.30703914 0.785856118
3.664050684 17.65534917 0.670325768
3.575955875 21.04117772 0.588704885
2.88958932 13.71675543 4.284605891
2.321458998 13.54541582 4.038502916
1.77998711 13.41348179 3.831202505
1.260009774 13.29715293 3.644464717
3.076381535 14.62749641 3.943718615
2.277910875 13.29131823 3.411755137
2.835884804 13.50388154 3.09367482
3.627857584 17.27958557 1.95301823
3.090323457 17.92265119 1.830385303
3.70967038 17.63100127 1.329096064
3.135670138 18.1704929 1.183352615
1.971504323 14.56421058 0.803681521
1.711206078 17.30584771 0.78603672
3.715108257 17.6293565 0.669768524
3.590704522 20.74249603 0.580653668
2.926257942 13.68257652 4.276713759
3.04250907 17.43127426 5.199812158
1.843015882 13.56908594 3.877243516
1.308033346 13.36715608 3.664733635
2.493536672 14.28607848 3.669046933
2.8777078 13.49702603 3.094112318
2.385164149 17.31358039 2.239488382
3.682303818 17.27517889 1.953787845
3.147875782 17.92778607 1.83188734
3.766660739 17.63319073 1.330126032
3.19174698 18.16275156 1.183480645
2.018506042 14.57490734 0.804609744
1.764696938 17.30449175 0.786217322
3.771267563 17.62764766 0.67013998
3.562181393 20.20864346 0.566012562
3.08000443 14.18847615 4.437773616
3.101177011 17.45114149 5.208552107
1.344288947 13.31604777 3.651835191
2.503599635 14.08841626 3.620237643
1.871381164 13.39422311 3.282623646
2.818792561 13.02463766 2.987788598
2.439239098 17.31305783 2.240378161
3.736967539 17.27157087 1.95466737
3.204438432 17.92685886 1.832788562
1.497463983 14.32286139 1.177646005
3.821797449 17.62642465 1.330493793
3.25202381 18.17841478 1.185145879
2.061531611 14.5567826 0.803954511
1.818717706 17.30793799 0.786623706
3.825966852 17.61892498 0.670251441
3.547895198 19.7725725 0.55410111
3.108500631 14.11078372 4.416435157
3.152993994 17.43210396 5.20573257
1.874943464 13.19648329 3.773992058
1.406901738 13.52104242 3.709220156
3.134236725 14.25010019 3.849583569
2.584943557 14.29149697 3.674443059
1.874949745 13.12578725 3.218230603
2.838643242 12.92443444 2.966786305
2.304917745 12.72681807 2.764514737
3.14224399 17.3036865 2.424399875
1.854490067 17.30600056 2.063723329
3.78951202 17.25808414 1.954447548
3.259956345 17.91988103 1.83308897
1.550893338 14.40639347 1.184899889
3.878856828 17.62825255 1.331523762
3.308494061 18.1722803 1.18540206
2.510424001 17.34306732 0.958258776
1.872561241 17.30923032 0.78693979
3.564007859 19.51772204 0.547263087
3.150734321 14.09651386 4.414973651
2.627303722 14.27549452 4.265464056
1.41425163 13.19819494 3.621826636
3.177308915 14.23758696 3.848818246
2.623863759 14.25680322 3.667575413
1.785788952 12.23338463 3.000757096
3.014331755 13.5261607 3.10702006
3.195676024 17.29591418 2.424672867
2.546001516 17.30169047 2.24088647
3.314375159 17.90686018 1.832788563
1.914474066 17.28524938 1.422156893
3.929661836 17.60166996 1.330420242
3.369501429 18.19050023 1.187259341
2.563766104 17.33627312 0.958313375
1.925435394 17.30141647 0.786849488
3.172186074 13.99071738 4.384866624
2.745240624 14.66344685 4.383878933
1.978329196 13.33606062 3.817308662
1.451141728 13.16119077 3.612876642
3.068539999 13.55443507 3.666670981
2.61139523 13.9485236 3.590314204
2.857215173 12.63837777 2.90509216
3.251102918 17.29868515 2.426448132
1.966124099 17.34264553 2.06949282
3.91417891 17.317882 1.963902632
3.366719984 17.88291734 1.831386661
1.965691323 17.26344999 1.420852863
3.984966348 17.59536768 1.330861674
3.429542983 18.20263329 1.188732291
2.616344519 17.32437624 0.958094924
1.97896047 17.29939855 0.787030091
3.191732449 13.87933178 4.35300532
2.68416166 14.09793695 4.21725248
1.97902832 13.06450933 3.741300341
1.438046567 12.68504953 3.483365999
3.079383128 13.41113856 3.630445663
2.490081 13.07857215 3.3683415
2.044384075 13.42789253 3.296775934
2.887470386 12.59245981 2.896560111
3.305274799 17.29446707 2.427267575
3.967512995 17.30676069 1.964012543
3.428864313 17.91061543 1.835291957
2.021193121 17.27911613 1.422646008
4.048976311 17.62679794 1.334172235
3.485747214 18.19398717 1.188860441
3.47031236 22.5110491 1.245517997
2.03202508 17.29324689 0.787030091
3.177396505 13.62546379 4.276421457
2.885487391 14.90630305 4.46169399
2.019541405 13.06122892 3.74211764
1.462335831 12.5550467 3.448882329
3.17248192 13.62481512 3.690906229
2.653451451 13.70761592 3.532429511
2.508927055 12.94526648 2.818442158
3.362096965 17.30369525 2.429998899
4.023066591 17.3051565 1.965221922
3.489309462 17.92833565 1.838195896
2.075858831 17.28668889 1.423786962
4.10733416 17.6327474 1.335570083
3.538687281 18.1685139 1.187899734
3.489397442 22.182682 1.227936296
2.084591917 17.28296341 0.786849489
1.667812885 13.6669861 -1.396355437
3.226885286 13.6482256 4.286652001
2.963435104 15.06118137 4.510751474
2.064551272 13.08633597 3.751107693
1.498556313 12.53134271 3.44361757
3.032314913 12.84430375 3.481972638
2.697739233 13.71082561 3.53537279
2.134801945 13.46596512 3.309277174
3.300559905 13.99911063 3.224720161
3.419966291 17.317594 2.433412814
2.766262959 17.32007573 2.24749567
2.124448901 17.31395759 2.068315507
4.076366976 17.29370032 1.965331833
3.544296521 17.91754621 1.838195896
2.129858804 17.28815189 1.424439036
4.161640644 17.62103427 1.335643635
3.604100483 18.20651857 1.191101934
3.547787002 22.11173207 1.224605588
2.136992032 17.2715293 0.786623706
1.709364154 13.65884352 -1.396052646
3.265176091 13.6233813 4.281975181
2.220708514 13.80095662 3.957883119
3.06788059 12.81895404 3.477635803
2.743212217 13.71959562 3.539787823
2.086299941 12.90390203 3.172707436
3.342131879 13.98322409 3.223407429
2.590229954 12.93921677 2.820532373
2.820662661 17.3193397 2.248512525
4.130559363 17.28594576 1.965881507
3.601014769 17.915366 1.839097117
2.185760815 17.30427999 1.426313603
4.216842947 17.61303231 1.336011515
3.643803378 18.11515108 1.185850288
3.567406585 21.80610717 1.208279638
2.189970245 17.26489165 0.786623706
1.751387429 13.65452179 -1.396153616
4.210393129 17.33235352 5.451779278
3.052736955 15.02767073 4.506240593
2.266465774 13.81496749 3.963876487
1.673927837 13.30489026 3.658942448
3.10445891 12.79820522 3.474574508
2.784518393 13.70731556 3.538806732
2.265591375 13.74506047 3.381217835
3.055106864 12.6110824 2.909248987
2.632838152 12.94558382 2.823667815
2.871672751 17.29788361 2.246860283
2.231153247 17.30453685 2.068786386
4.188485718 17.29347996 1.968190354
3.634064534 17.79700103 1.82808218
3.004936386 18.05964343 1.670662837
1.883695386 14.55361528 1.200059497
4.276032895 17.62133382 1.337630019
3.617847267 17.70496783 1.159720088
3.543141165 21.24843516 1.177975683
2.242670403 17.25611155 0.786533406
1.79210423 13.64020696 -1.39524548
4.259890485 17.30449823 5.447102462
3.188400641 15.45234654 4.636496767
1.721030241 13.34848921 3.672367321
3.343364325 13.60082009 3.695243063
2.772096496 13.43476005 3.470620687
2.302115601 13.70450259 3.372962353
1.647241556 12.66461492 2.969622917
3.405766757 13.8724288 3.202624004
2.681642646 12.98149896 2.833282759
3.009520507 12.25843168 2.34262399
2.924232079 17.28605911 2.246478816
2.285012325 17.30351642 2.069492819
4.244838833 17.29406134 1.969729583
3.662179073 17.65814107 1.814964389
2.490844977 14.69142845 1.359776334
2.291896729 17.29054276 1.426313603
4.328645207 17.60232156 1.337188587
3.658966927 17.63027141 1.15555718
3.527697941 20.7629844 1.151657729
3.524430035 14.13000444 4.451219473
3.224183668 15.38708875 4.619862303
2.59794401 15.24917268 4.379879235
1.763490333 13.35462347 3.675526129
4.315415783 17.32565746 4.710829199
2.350378832 13.73377409 3.381925461
1.685188148 12.6527439 2.968037672
3.53640883 14.21606147 3.284445208
2.322866567 17.25185999 2.715054358
4.30363322 17.30410643 1.972368162
3.720437159 17.6662952 1.816967105
2.344664554 17.28145418 1.426150643
4.382628281 17.58895833 1.337188587
3.710363196 17.60626989 1.154724623
3.578099965 20.67532021 1.147398858
1.980977939 14.54372083 0.66344427
4.379577557 17.33181086 5.464056405
3.055359963 14.36174261 4.31480335
3.013366849 17.36561697 4.990398165
1.790884101 13.2487672 3.647886741
3.225667567 12.78315359 3.478401127
2.394671435 13.73894378 3.384991762
1.722288177 12.63496814 2.965093441
3.56355254 14.13985752 3.269349972
3.039499963 17.32054642 2.253342171
4.354758491 17.28311079 1.971488635
3.770666551 17.63631136 1.815064525
4.442671825 17.59960427 1.339027867
3.767284147 17.60846527 1.155621196
3.552269797 20.15781732 1.119278937
2.022693041 14.51679745 0.662496021
4.43747299 17.33682122 5.469902427
3.077939452 14.25289312 4.284918055
2.485714501 14.06846834 4.045061346
1.837469671 13.28621329 3.65973209
3.369748707 13.18351356 3.590138616
3.052586754 14.13549412 3.658745581
2.359381579 13.29521555 3.277434464
1.744229382 12.50903945 2.936783143
3.580849183 14.02674962 3.245722453
2.830557165 13.0929518 2.86317282
2.440257779 17.31946801 2.727999296
3.096462162 17.33262132 2.256138581
2.445285574 17.2896202 2.070434812
4.417102653 17.30626591 1.975666444
3.825178236 17.62660591 1.815264797
4.504798534 17.61777605 1.341455565
3.827006336 17.62315517 1.157350446
3.529117074 19.67310505 1.092960982
2.0686293 14.52041307 0.662947526
3.392757933 13.08792569 4.132607372
3.029428053 13.82258613 4.158327326
2.657112817 14.77385306 4.25020194
1.882680707 13.31203638 3.668418871
3.498626468 13.51477352 3.683252993
2.998808711 13.6828769 3.543957526
2.47927242 13.72590407 3.385463591
1.777236974 12.46602266 2.927950448
3.595775808 13.90705602 3.220563334
2.899842957 13.21697755 2.892226746
2.494226905 17.31776784 2.728924121
3.151929964 17.33572734 2.257790823
2.499312306 17.28891623 2.071259025
4.473410408 17.30514374 1.977095645
3.882019804 17.62741896 1.816566562
4.5645786 17.62607868 1.34314774
3.881699622 17.61425444 1.157542611
3.546419704 19.42643891 1.079856544
2.521350767 17.31754625 0.791003634
3.436537278 13.09132981 4.136991889
3.049952234 13.71488846 4.12872337
2.784705776 15.21519721 4.37960696
1.927929366 13.33675171 3.676842437
3.54301499 13.5152004 3.686314289
3.039720807 13.66888064 3.542731102
2.520493001 13.71345486 3.384284137
1.829376419 12.5559313 2.950372047
3.465661075 13.23613429 3.067640939
2.924653253 13.13738278 2.876759104
2.554083342 17.29295532 2.072671894
4.528998007 17.3009521 1.978195111
3.936732595 17.61833805 1.816866969
4.622174629 17.62549632 1.34417759
3.941600513 17.62855799 1.159271742
3.571723916 19.23090445 1.069591432
2.575203164 17.31467015 0.791229417
3.479632467 13.09181605 4.140499504
3.030571162 13.43311699 4.046679242
2.600825844 13.96837513 4.022994277
1.964890193 13.30405147 3.669471729
3.589175544 13.522023 3.691161338
3.033638036 13.446711 3.487544591
2.525761741 13.50887978 3.335694668
1.893698301 12.72367258 2.991138762
3.448740204 13.00850554 3.017322938
2.957404616 13.09496263 2.869443468
3.260624949 17.32873321 2.259443064
4.584856335 17.29754574 1.97940449
3.9942855 17.62170397 1.818469142
3.499258867 18.55952872 1.723461822
4.67725093 17.61508867 1.344471917
3.994120273 17.60957014 1.158823515
3.434797893 18.18277509 1.011877565
2.628911527 17.31063958 0.791410019
3.614702259 13.43384774 4.252159984
3.023829671 13.21425882 3.983524548
2.632389298 13.90077172 4.005831002
2.003970642 13.28651313 3.66631292
3.653226904 13.59498899 3.714121048
2.986430984 13.05082425 3.38722759
2.519089061 13.2480774 3.273188707
1.972529824 12.97972832 3.052741595
3.515192992 13.09681804 3.040294092
2.949527376 12.87611884 2.823458723
3.314518998 17.32254504 2.259951373
4.644858256 17.30931751 1.982372921
4.05055888 17.61906311 1.8194705
3.483052274 18.16726698 1.688020186
4.733860146 17.61028618 1.345207558
4.05483884 17.6264094 1.160744811
3.496216361 18.20156836 1.01351562
3.44757395 22.2414077 1.017314246
4.881569716 17.92276183 5.677730949
3.147639583 13.56380427 4.091789469
2.725962816 14.15717954 4.082112069
3.783237119 13.90840526 3.802898828
3.024922129 13.03499044 3.385510738
2.607127463 13.48549491 3.333807822
2.021896593 13.03521531 3.067236489
3.618548328 13.31855662 3.094331185
3.042566112 13.09752585 2.874041848
3.368974067 17.31910864 2.260841149
4.702630373 17.31225008 1.984351913
4.108886317 17.62496472 1.821373081
3.543916181 18.18288741 1.690473871
4.791269388 17.60819156 1.346163975
4.10867029 17.61291555 1.160680796
3.551658658 18.18879638 1.013406424
3.490669534 22.07186403 1.010044505
3.846246511 13.95259272 4.423743159
3.252745863 13.82398889 4.173269973
2.78195157 14.21295946 4.100637195
4.080230577 14.82057105 4.055711211
3.038697204 12.91429385 3.356568391
2.772349133 14.10772708 3.489718791
2.082736394 13.16075105 3.098264285
3.678537831 13.37701604 3.110520522
3.077353778 13.06528449 2.869025518
3.422092595 17.30869271 2.26084115
4.758883656 17.30924261 1.985671085
4.168890155 17.63745187 1.823976612
3.599103134 18.16899682 1.690201238
4.851093697 17.61456122 1.347782479
4.166361579 17.61576524 1.161705519
3.611914895 18.20034067 1.014662294
3.5193949 21.81942456 0.998981883
3.87618574 13.89466876 4.409127624
3.379735465 14.16857882 4.280407175
3.072393548 15.44530493 4.458884477
2.514371897 15.68991226 4.33571528
3.846967176 13.80762067 3.781724874
3.139936926 13.16329139 3.423773343
2.808957121 14.06580177 3.48146331
2.125275878 13.16776167 3.101435014
3.741797371 13.44557144 3.129116217
3.166707435 13.26218666 2.914382986
4.225068173 17.63328732 1.824877834
3.638714476 18.07781611 1.682749348
4.909127856 17.61400474 1.348885999
4.223178199 17.61454602 1.162474061
3.650367077 18.10303968 1.009857325
3.582591048 21.78585283 0.997943332
3.921134022 13.8909949 4.411758336
3.417776891 14.13576204 4.273640381
2.80277505 13.86742148 4.005831002
2.492175555 15.25177269 4.216733918
3.87802833 13.75573593 3.770755234
3.186913849 13.18092315 3.430886323
2.836831866 13.9818799 3.462829468
2.17847408 13.23902747 3.11978013
3.745736831 13.30159517 3.098269145
3.206230254 13.24765581 2.913337995
3.534579418 17.3184684 2.264908332
2.886314608 17.32921424 2.083033565
4.280320498 17.62507484 1.825378512
3.61176535 17.66361394 1.645217614
3.028697849 18.12939805 1.503090106
4.971264628 17.62765746 1.351093159
4.280027091 17.61314316 1.163242603
3.613116867 17.63885012 0.984576731
3.572629635 21.31662308 0.976946821
5.10980878 17.89185326 5.687377363
3.487158998 14.23144274 4.30578159
2.875106287 14.00390532 4.047785519
2.594587949 15.57807501 4.309128747
3.915438223 13.72703634 3.766163292
3.264022196 13.32079822 3.469884926
2.8432299 13.7960793 3.41895735
3.626371821 12.72792128 2.967223804
3.166257732 12.90914025 2.841016582
3.588299109 17.31045604 2.265289564
2.94146029 17.33202516 2.084446433
4.336513007 17.62055635 1.826279735
3.666749526 17.6563498 1.645581083
5.027784641 17.6209544 1.351755248
4.337622566 17.61446346 1.164203192
3.666198255 17.6227935 0.984303741
5.217498607 18.05892498 5.745545779
3.527336103 14.20670908 4.301552519
2.965780528 14.2239047 4.113986253
2.417032784 14.24226071 3.941655145
3.870946705 13.41488983 3.68376321
3.250443357 13.09149489 3.41273623
2.862649201 13.67790604 3.391831992
3.672970363 12.74298906 2.973349493
3.192403302 12.84526992 2.829102328
3.641389901 17.29936659 2.265289564
3.000033477 17.35423328 2.0882144
4.393922259 17.62068553 1.827681637
3.722955885 17.65476139 1.646489934
5.083204023 17.61023772 1.352123127
4.394058237 17.61075544 1.164843703
3.721072364 17.61537092 0.984522133
3.52620133 20.27564587 0.930212667
5.277438332 18.05843744 5.750514899
4.369016719 17.36864417 5.262966383
3.008009823 14.2081495 4.112079379
2.446254703 14.15112244 3.918490398
3.887160271 13.31755788 3.660293284
4.368773025 17.36767461 4.530938438
2.859151514 13.45518281 3.338760969
2.374539272 13.6454361 3.220564194
3.905694083 13.39583072 3.12845985
3.212695077 12.75955035 2.812380603
3.696726641 17.29878228 2.26668765
3.055499354 17.35766112 2.089745047
4.449179409 17.61194499 1.828182316
3.777102594 17.64325615 1.646489933
5.142798023 17.61370545 1.353594527
4.44880052 17.6000946 1.165035868
3.778866677 17.62144612 0.985504954
3.564351833 20.12898538 0.923981478
4.423940432 17.36166483 5.264940008
3.104352549 14.44437545 4.183183906
2.482299437 14.101745 3.906908259
3.937033917 13.33617209 3.668711845
4.422275111 17.35513075 4.531183537
3.007377738 13.94221491 3.461886044
3.967197176 13.45304402 3.144649186
3.24554207 12.72499675 2.806946089
3.108562453 17.34722773 2.089627269
4.506397659 17.61074366 1.829484081
3.832693702 17.63839748 1.647126035
5.201330982 17.61314811 1.3547716
4.504013315 17.59119751 1.165356065
3.838007395 17.63318561 0.986815422
3.552196735 19.70798659 0.905152311
5.258596021 17.59232112 5.612255008
3.447197248 13.35705859 4.053727377
3.033615635 13.9074046 4.030349969
2.5194254 14.05987718 3.897431836
3.939758053 13.19617346 3.633506957
4.475741293 17.34242038 4.531428632
3.972478215 13.32018467 3.116427342
3.289458229 12.73391678 2.811126522
3.807065077 17.29514775 2.269229668
3.161946474 17.33858672 2.089745048
4.563650583 17.60935486 1.830785846
3.890434929 17.64308837 1.648670868
5.258767613 17.60857524 1.355654346
4.561969221 17.59275215 1.166380788
3.896394294 17.64082759 0.987907438
3.54109689 19.30690764 0.887226274
5.310606616 17.56969695 5.610208899
3.536923119 13.53299851 4.110397562
3.074605056 13.89051659 4.028170347
2.517895368 13.80721911 3.82951759
3.976871123 13.17291636 3.630445662
4.529171101 17.32954539 4.531674201
3.025435875 13.61992789 3.386407015
4.04910546 13.42658064 3.144211453
3.236443035 12.3718245 2.733370593
3.862486158 17.2940354 2.270627755
3.214944507 17.32782803 2.089627269
4.62219991 17.61259464 1.832588291
3.945849492 17.63690112 1.649216132
5.322279551 17.62386304 1.358082161
4.623525128 17.60763099 1.168302084
3.951807228 17.63463695 0.988235026
3.55395527 19.0474984 0.875802388
5.349671468 17.50484919 5.594716461
3.580879641 13.53135891 4.113216627
3.118681814 13.8875898 4.030077692
2.576786094 13.88859254 3.854261623
4.014443542 13.15140579 3.627894584
3.498244941 13.2190994 3.459583337
2.987733441 13.25792207 3.298662779
4.090847692 13.41596114 3.144649186
3.273382567 12.35805642 2.732534461
3.920347043 17.30338622 2.273423928
3.266433127 17.3090999 2.088567499
4.676724131 17.60025466 1.832788563
4.000160722 17.62568366 1.649307088
5.389429687 17.65037312 1.361392723
4.682394888 17.61168698 1.169518972
4.006997546 17.62729755 0.988508074
3.451461276 18.18851931 0.836789539
5.401938909 17.48378591 5.593254956
3.514368121 13.11717447 3.990573154
3.074083848 13.49519424 3.918925523
2.707221001 14.34608977 3.983509051
5.381177524 17.43709028 4.814658108
3.704872256 13.82821917 3.621954494
2.972958354 13.00617188 3.238279698
2.665873592 14.04089207 3.323160238
4.082544362 13.24296273 3.10702006
3.376630472 12.5916461 2.786462118
3.322141304 17.31265099 2.090215925
4.731474257 17.58870567 1.83308897
4.056227262 17.62206263 1.650124864
2.845274289 14.78850477 1.231519901
5.44679077 17.64423837 1.362202034
4.745223241 17.63000368 1.17169645
4.062853129 17.62270611 0.988944857
3.509517661 18.1896147 0.837331404
5.45412712 17.46256751 5.591793451
3.568658162 13.1581858 4.00636171
3.111790183 13.46976147 3.914294239
5.459701041 17.50080361 4.836852495
3.856903741 14.22099066 3.727912719
3.005385443 12.96480263 3.230260013
2.711707298 14.04699309 3.326557466
4.121702466 13.22571687 3.105926195
3.437533453 12.66333468 2.804646782
4.297618733 13.7901963 2.680751602
3.369346068 17.27216277 2.086565974
4.786197568 17.57698638 1.833389377
4.1181945 17.64347693 1.653305605
3.556758349 18.18559243 1.515315615
5.505055876 17.64077334 1.363232003
4.79981364 17.61728726 1.171824599
4.118718087 17.61793675 0.989381699
3.566459709 18.18464419 0.837602307
4.2498069 13.46140809 4.314713389
4.847908884 17.66032954 5.381663071
3.155075342 13.46858293 3.916746136
2.709860651 13.89174832 3.861895311
4.205686842 13.3370612 3.689630691
3.933876882 14.33062329 3.759798104
3.040254965 12.93470905 3.225071068
2.765292969 14.09213125 3.33924038
4.162552324 13.21394069 3.106145064
3.533884153 12.86206736 2.851049475
4.341383096 13.78163599 2.68166403
4.837192385 17.55166905 1.832287883
4.175515281 17.64432755 1.654577808
3.611951194 18.17166215 1.515071117
5.565751357 17.64472352 1.364850507
4.855962241 17.610176 1.172336842
4.175513198 17.61687665 0.990036874
3.622232585 18.17361734 0.837602308
4.336145086 13.58952241 4.360020549
4.903351436 17.6499948 5.383072602
3.183931243 13.40641632 3.90148997
2.741210518 13.82659027 3.846101272
4.270955101 13.4005597 3.710804646
3.856898506 13.88320654 3.645500714
3.077896418 12.91681335 3.222948191
2.827562585 14.17910178 3.361888712
4.203072624 13.20110821 3.106145064
4.382749379 13.76544092 2.68111662
3.487225142 17.31054662 2.093748335
4.892621204 17.54249687 1.832888698
4.231253762 17.638212 1.655214026
3.635523571 18.00125245 1.501785957
5.618646688 17.62376507 1.36455618
4.919086389 17.62787688 1.174514438
4.231874232 17.61369123 0.990582912
3.606791296 17.81091873 0.821392109
4.412155868 13.6826458 4.394220264
4.957737206 17.63579135 5.383354412
3.251844951 13.50790346 3.933909176
2.801334911 13.9060678 3.870582089
4.322719271 13.42052522 3.719988528
3.832571423 13.6333228 3.582955893
3.331063099 13.79147517 3.443723795
2.875692104 14.19327112 3.36732418
4.23518432 13.16214254 3.100019375
3.196000179 13.21106034 2.767330518
3.541312198 17.30462941 2.094337226
4.94912042 17.53697862 1.833890056
4.285347011 17.62514935 1.655214027
3.621029125 17.65024874 1.473422729
5.680029669 17.62922665 1.366321907
4.976127902 17.62326696 1.175218965
4.284474788 17.59480588 0.990255325
3.627401804 17.63440544 0.813761106
4.376781715 13.4317258 4.317928702
3.959794516 13.92180017 4.253340945
3.265675391 13.3847587 3.900944948
2.818647466 13.77359446 3.83609842
4.362974446 13.4044422 3.719223205
3.85740543 13.5618223 3.567258412
3.371741927 13.7745835 3.442072747
2.838525981 13.79227972 3.274240323
4.271320943 13.1360957 3.096956413
3.967256088 13.93601559 3.097067644
3.182617102 12.9813468 2.72124492
3.595800079 17.30048931 2.095161439
5.005631467 17.53128052 1.834891414
4.345117811 17.63512502 1.657394962
3.676178697 17.64393483 1.473830187
5.738410914 17.6249926 1.367351875
5.034009506 17.62134966 1.176115537
4.340587581 17.59030331 0.990746706
3.681281998 17.62221544 0.813715984
4.451166361 13.519062 4.350374608
4.011242514 13.94001281 4.262644518
3.31041879 13.38962124 3.905303953
2.951195623 14.19937383 3.957185733
4.39924511 13.37629745 3.715141479
3.883981932 13.49775129 3.553523117
3.400650833 13.71041094 3.428628083
2.958740951 14.15629096 3.362794467
4.267133776 12.98758409 3.065015475
4.004038205 13.90310514 3.092469028
3.277001704 13.1912012 2.767330518
4.476726117 13.62550738 2.661774198
3.65050068 17.29714976 2.096103195
5.054146818 17.49767927 1.832988834
4.402578196 17.63523916 1.658667282
3.730704852 17.63452284 1.473993264
5.79868993 17.62625116 1.368823275
5.080843663 17.58089765 1.174450422
4.393806786 17.57399753 0.990582912
3.7347071 17.60790584 0.813580503
4.481754412 13.47267527 4.339851294
4.037902743 13.87236841 4.245728241
3.366912736 13.44100247 3.923284528
3.161484726 14.98033051 4.177512154
4.457946149 13.41595738 3.729937735
3.940004705 13.53603659 3.566767984
3.441276676 13.69425912 3.427212832
3.056952077 14.40535527 3.424171037
4.322022404 13.01981033 3.07573549
3.807893856 13.07111232 2.909993463
3.314586272 13.16968222 2.76493632
3.704590738 17.29072359 2.096692087
5.115339273 17.5078778 1.835692501
4.459347506 17.63226857 1.659666852
3.786044785 17.6288411 1.474482261
5.851480662 17.60459234 1.368528948
5.143157766 17.59396147 1.176371718
4.454567034 17.58753741 0.992111712
3.787027665 17.58855268 0.813219299
4.49199291 13.36639813 4.310036568
4.083695015 13.8709599 4.249111876
3.399140056 13.39517032 3.912931919
3.03685108 14.17439449 3.955343231
4.507700721 13.42788385 3.737080757
3.990823182 13.55550531 3.575107153
3.442519915 13.523539 3.387114641
3.052110159 14.16833981 3.370041915
4.352018174 12.97688453 3.068734804
3.911824945 13.27605471 2.958277514
3.296391483 12.92966634 2.716656317
4.642154208 13.8420143 2.709582845
3.760152612 17.29092111 2.098104956
5.170156805 17.49591812 1.836093044
4.516140049 17.62911624 1.660666541
3.845205908 17.6405138 1.476438366
5.910225152 17.60073997 1.369632469
5.207862658 17.6144653 1.178805376
4.519421276 17.61634316 0.994514255
3.842036937 17.58173218 0.813445022
4.572637322 13.46937271 4.3477439
4.009050998 13.46480378 4.128441559
3.440219951 13.38467885 3.912931919
3.079913243 14.16312609 3.954816804
4.551981156 13.42314806 3.739631836
3.994214866 13.41497549 3.541259344
3.761548282 14.58943063 3.656951782
2.937873023 13.43764187 3.198369092
4.394940966 12.97271353 3.070922533
4.060894309 13.62761919 3.03937774
3.282390579 12.71171029 2.672964683
3.818104693 17.3016085 2.100813154
5.218965637 17.46376667 1.834390735
4.568953733 17.61035743 1.660212115
3.900384548 17.63349967 1.476845824
5.979573509 17.62785664 1.373163805
5.269025527 17.6223095 1.180406477
4.576208264 17.61302671 0.995114832
3.907637061 17.62252811 0.815883329
6.712453367 19.5750179 6.325186643
3.998062747 13.27880753 4.075155006
3.48199446 13.37685421 3.913749216
2.937288392 13.31046078 3.719223009
4.582488114 13.37801878 3.730958168
4.024452397 13.36645558 3.531693753
3.888779496 14.89374979 3.736204503
2.965795168 13.36865888 3.184100695
4.452728164 13.01179203 3.08339254
3.987568646 13.23307597 2.954097083
3.383349262 12.93858552 2.722840896
3.875289605 17.30822508 2.103050235
5.27626114 17.46005515 1.835692501
4.629286542 17.62033801 1.662484007
3.957520197 17.63506616 1.477986896
6.037505892 17.62075109 1.374046669
5.324220699 17.60988184 1.180662657
4.632001393 17.60566232 0.995497017
3.964314912 17.62215149 0.816425194
6.108968934 17.63856919 5.705500039
5.33893922 17.53719524 5.387019861
3.564216786 13.52241604 3.959517716
2.966939139 13.25149129 3.705271471
4.633309733 13.39222364 3.738866512
4.06939407 13.36702927 3.535127693
3.934454498 14.88174891 3.736204502
2.976426301 13.22456203 3.151940412
4.521634221 13.08199403 3.103300968
4.015892664 13.18055507 2.945109179
3.534637978 13.34967287 2.811620583
4.779955029 13.82936931 2.715604584
3.930791824 17.30690654 2.104345563
5.329221175 17.44188344 1.83549223
4.688698937 17.62626302 1.664392428
4.015366158 17.63936154 1.479372465
6.094146025 17.60968531 1.374635206
5.386682329 17.62114099 1.182519938
4.687535012 17.5971587 0.995824723
4.020804726 17.62062038 0.81692188
6.178526288 17.66397669 5.719823272
5.393564066 17.52348285 5.387865767
3.540935659 13.26878066 3.888413188
3.031938123 13.34957422 3.735280261
6.165734942 17.64618256 4.931752627
4.114662301 13.36838056 3.538806732
3.687867297 13.77785616 3.461886045
3.003327185 13.15554453 3.137672015
6.152008375 17.62368629 4.185135286
4.049689749 13.14667791 2.940301708
3.56517543 13.29996043 2.803440918
4.832405988 13.84341567 2.721261302
3.988328068 17.31411904 2.106700423
5.380064454 17.41689432 1.834591007
4.74845072 17.63295042 1.666391687
4.074396425 17.64832557 1.481165611
6.158343529 17.62008997 1.376915799
5.449557788 17.63313581 1.184441353
4.742280303 17.58558752 0.995988517
4.07687237 17.61696015 0.817328264
6.197971361 17.54664904 5.687961965
4.259497698 13.68942492 4.21302341
3.693043219 13.67027602 4.009372945
3.130482663 13.59027952 3.805300222
6.223382901 17.63721285 4.934558813
4.238320102 13.62136299 3.609200292
3.725545249 13.74959301 3.457640286
3.044991965 13.15196187 3.139030999
6.187232038 17.55135378 4.172446648
4.03388902 12.95398955 2.899960568
3.570549351 13.1584534 2.775909058
4.042331975 17.30566975 2.1071713
4.803572786 17.62214307 1.666755157
4.129657132 17.64059405 1.481573068
6.22133415 17.62650579 1.378902183
5.506903304 17.6268119 1.18514588
4.800679489 17.587331 0.996916681
4.133639854 17.61604024 0.81787013
6.25627244 17.54016249 5.692054183
4.17510624 13.27450624 4.089251744
3.748670048 13.7089988 4.024083851
3.116206406 13.34105314 3.738175618
6.245659535 17.5287762 4.909558241
4.214063424 13.39836882 3.553523118
3.774136461 13.76152856 3.463537094
3.087998404 13.15393761 3.141748734
6.237777415 17.52309757 4.170258921
4.075667742 12.94808249 2.901423743
3.609604551 13.14271256 2.77491175
4.101126987 17.31734436 2.110115053
4.859203522 17.6130823 1.667300419
4.185139408 17.63365925 1.482062065
6.280069938 17.62048703 1.379932151
5.56305953 17.61649534 1.185594107
4.864452044 17.60813024 0.99893692
4.19159594 17.61979661 0.818637719
6.303250518 17.50199044 5.685915857
4.240809225 13.34026836 4.11349891
3.797383574 13.72154453 4.031167267
2.998831829 12.6630275 3.550753579
6.295479697 17.4986146 4.906496946
4.181723812 13.15440371 3.492204721
3.308751446 13.90244046 3.32293374
6.299759235 17.52683272 4.17572824
3.6485967 13.1268567 2.773914208
4.157018381 17.3162678 2.111527922
4.917769093 17.61439695 1.668845371
4.244813889 17.64399306 1.48401817
6.34422975 17.62928778 1.382139192
5.62193463 17.6145553 1.18661883
4.92409604 17.6133173 1.000083594
4.2482091 17.61753667 0.819134404
6.360837728 17.49335495 5.689423471
4.325150274 13.46238534 4.155225977
3.861518138 13.78858452 4.05432391
3.048026324 12.6969201 3.562862383
6.348144655 17.47649186 4.905731623
4.36647379 13.59100765 3.611652905
3.693748197 13.15150013 3.315645572
3.041878019 12.60923856 3.016051597
6.34850834 17.49366579 4.172446649
3.688321637 13.11371443 2.773515096
4.210594103 17.30536212 2.111763479
4.972327703 17.60114463 1.669027166
4.296092069 17.61926735 1.483040176
6.405097477 17.62848826 1.383610592
5.679318614 17.60767275 1.187323357
4.977022262 17.59428428 0.999865202
4.30318752 17.60830293 0.819315007
6.567390761 17.89031459 5.825052654
4.381245337 13.49467989 4.169322716
3.870750989 13.66003103 4.019997359
3.101106163 12.7456265 3.579182849
4.837752175 13.19210425 3.707233136
4.406353432 13.57201501 3.610181385
3.746032659 13.18217077 3.326259729
3.066900066 12.54402433 3.00268919
6.41054021 17.49701061 4.177915969
4.370841504 13.45224171 3.023283056
4.050109921 14.23236841 3.012721408
4.264854898 17.29718342 2.112352135
5.032598249 17.60782927 1.671117262
4.358733617 17.64083817 1.485974276
6.462928708 17.6190536 1.384419903
5.741661655 17.6157833 1.189052488
5.032351171 17.5837327 1.000138192
4.360310134 17.60762311 0.819902052
6.705988285 18.09605809 5.898713504
4.366999226 13.31161127 4.116882071
3.907072855 13.6286678 4.014276738
4.259597857 17.2761467 4.855074395
6.653649825 17.97311326 5.056500855
4.596347555 14.01071868 3.730610663
3.867277446 13.45173623 3.397257204
3.099280275 12.50997465 2.996800727
6.50447058 17.58616835 4.20394985
4.411786493 13.4378398 3.023073964
4.322715671 17.30328639 2.114706996
5.090467351 17.60569949 1.672389464
4.415738808 17.6389843 1.486952387
6.526303183 17.62439458 1.38640617
5.801922311 17.61704209 1.190333391
5.092938074 17.5912298 1.00144866
4.417469799 17.60675965 0.820489039
6.736680413 18.00911639 5.877083214
4.383970641 13.22620496 4.094608533
4.032480197 13.90493641 4.099274874
3.365140448 13.47045321 3.788453326
6.710790352 17.95804965 5.058031502
3.888176047 13.36982443 3.379566786
3.140965576 12.51363364 2.999971457
6.602079748 17.68313988 4.231953063
4.46253711 13.45301456 3.029553702
3.898178125 13.38591821 2.838553776
4.381871875 17.31401032 2.117650749
5.158993202 17.63970197 1.677115039
4.476448415 17.65143882 1.489152872
6.582438328 17.60989473 1.386847602
5.859723885 17.61052214 1.191101934
5.147163886 17.57648095 1.001503258
4.474172525 17.60377467 0.820985725
6.790886332 17.98567922 5.876206309
4.437932644 13.25272315 4.107013928
4.057246429 13.83156357 4.081294772
3.202660832 12.65481898 3.561809526
6.780867949 17.97718226 5.069256247
4.498141889 13.43252251 3.583936985
3.934660205 13.37647788 3.384284135
3.526174953 13.86798671 3.327236957
6.664214144 17.68380303 4.236984651
4.014534462 13.6295676 2.892819037
5.213934358 17.62665724 1.677387671
4.532812945 17.64630895 1.489886485
6.647347287 17.61854187 1.389128313
5.927397862 17.63313827 1.193855907
5.207018201 17.58071157 1.002649931
4.536128436 17.62092313 0.82243066
6.880429223 18.05501865 5.905729206
6.794563651 20.08532344 6.230865225
4.02358523 13.56261251 4.005558726
3.23476258 12.61876714 3.554438817
6.843557441 17.97617455 5.074868621
4.543058646 13.42967887 3.586880261
3.930237617 13.21158761 3.345601199
3.567976084 13.85427432 3.326557466
4.011291134 13.46598889 2.860698808
5.277406049 17.64206195 1.680386618
4.588937026 17.64003603 1.490538441
6.704208212 17.60552095 1.389716849
5.971841255 17.5865209 1.19193461
5.268952404 17.59143615 1.004178672
4.591679346 17.61272429 0.822701564
6.902146323 17.94635032 5.877083213
4.534987971 13.27154555 4.121392952
4.074299803 13.58061763 4.014549014
3.411885631 13.14197031 3.704745042
6.917055406 18.00293148 5.088389339
4.586747028 13.42301706 3.588842447
3.978030042 13.22366246 3.351734037
3.648810016 13.99029014 3.361888712
6.846730531 17.83570313 4.283364694
4.555157386 13.3206931 3.009069731
3.977971701 13.20592065 2.808029522
5.341886181 17.66010397 1.68365808
4.646335093 17.63840506 1.491598093
6.766060221 17.60535114 1.391335354
6.042927901 17.61814621 1.195328975
5.333316972 17.60959121 1.006144432
4.642123206 17.5850318 0.822069397
7.002501981 18.04188018 5.915375143
4.570361784 13.24215271 4.116600261
4.185773356 13.79823952 4.082656622
3.498302911 13.3068498 3.75423287
6.94743634 17.91761769 5.070276679
4.623794943 13.39696835 3.585654073
3.989452823 13.11563478 3.327439187
3.639487265 13.78126696 3.314327545
6.956406108 17.956556 4.31749336
5.393420115 17.63506223 1.682840304
4.70350893 17.6356234 1.492576086
6.829417148 17.60868455 1.393248068
6.108384515 17.63252851 1.197570468
5.384978535 17.58550937 1.005707531
4.700178701 17.58614928 0.822791865
6.165956276 17.6890652 5.504870641
4.167426953 13.58755805 4.024083852
3.533900189 13.27647723 3.748705135
7.00765919 17.90972637 5.074103299
6.156012949 17.66054038 4.731817063
4.015389496 13.0568905 3.315645573
3.627407315 13.56678819 3.265407627
7.041306674 18.01146739 4.335870186
5.446909968 17.61652972 1.68265851
4.763307638 17.64227876 1.494369113
6.889950278 17.60436508 1.394572363
6.156190031 17.59580855 1.19635358
5.440676455 17.57462775 1.006035237
4.757240831 17.5832169 0.82333373
7.009032383 17.7353164 5.828853043
6.21223195 17.64744024 5.497822035
4.149822433 13.38355455 3.967418429
4.7817161 17.74518282 5.014594062
6.956758024 17.62013618 4.998081151
6.193105151 17.59310478 4.718817529
4.224200772 13.58737425 3.453630327
3.668249019 13.55277595 3.264728137
7.099038517 17.99613432 4.337401786
6.100394555 17.31719046 3.924373676
5.509546448 17.62729924 1.685293869
4.82003874 17.63719575 1.495184147
6.959678778 17.62303047 1.39773582
6.218123262 17.5994208 1.197890665
5.496656604 17.56452375 1.006417422
4.816967897 17.5897368 0.824327101
7.060222364 17.70573368 5.826221856
6.231959684 17.53156728 5.467654452
4.120358421 13.14581803 3.900672672
3.685871061 13.5132872 3.821883905
7.021876128 17.62655632 5.005989495
4.719950581 13.27802797 3.565296228
4.31102464 13.71804852 3.490190622
3.8186735 13.93882378 3.360529727
7.02755801 17.65605354 4.260612407
6.15480517 17.30207994 3.925209575
4.18414119 13.29725178 2.838154663
5.562100624 17.60556506 1.684839561
4.877048691 17.63289229 1.49608072
7.022203735 17.62290406 1.399427877
6.290531649 17.63195742 1.20141318
5.561960775 17.58375422 1.00849226
4.879447641 17.60568227 0.825772037
7.069178424 17.57131289 5.789099129
6.290254462 17.52500766 5.47160171
4.130738853 13.0386389 3.872612236
3.807151792 13.79112895 3.903749453
7.044549077 17.52687765 4.983795109
6.294387678 17.5365246 4.713912304
4.419576957 13.91407558 3.543497441
3.741449138 13.49434563 3.25612194
7.074420412 17.61630134 4.256236951
6.219759108 17.31624662 3.932734538
4.120971878 12.9575202 2.768328061
5.631233428 17.63585325 1.689383344
4.934883468 17.63128337 1.497221791
7.087396646 17.62903697 1.401634918
6.358463007 17.65106954 1.204039003
5.592164905 17.49242276 1.00423327
4.938293783 17.60794197 0.826584806
7.045726752 17.35902775 5.726253898
4.741893629 13.08479643 4.089815842
4.278693886 13.36312077 3.972866773
3.860346264 13.81840839 3.914805161
7.081937254 17.46486085 4.972315255
6.349149982 17.51986459 4.714648062
3.746784726 13.35432457 3.225093909
7.11817387 17.56919187 4.250111026
6.280856861 17.31914789 3.937750868
4.272249525 13.29185171 2.842543712
5.686230343 17.62133725 1.689655976
4.990310117 17.62085431 1.497629248
6.415655516 17.63991909 1.20461538
5.685403528 17.59775363 1.011276988
5.001017947 17.62346291 0.828029683
7.106559895 17.35591515 5.732392222
4.776080919 13.05396834 4.084740864
4.335074193 13.39753436 3.987033602
3.904296899 13.81207021 3.916384684
7.126698799 17.42157166 4.966192663
6.414861888 17.53307876 4.723478131
4.49557337 13.85804021 3.536185381
3.797579239 13.37743463 3.233473606
7.106328157 17.38649408 4.21116964
6.354134459 17.35489499 3.950292162
4.210692289 12.96367748 2.775111071
5.750453057 17.63505326 1.692654805
5.046817663 17.61408491 1.498362862
6.472839449 17.62858494 1.205191757
5.749902176 17.61250204 1.013133435
5.058646057 17.62051826 0.828616728
7.189346176 17.40562592 5.756069093
4.782532963 12.94835344 4.056265101
5.772878868 17.65594921 5.259560345
3.953019851 13.82228818 3.922702299
7.181958434 17.40409588 4.967468205
6.665791645 18.04713726 4.867453393
4.563191906 13.92082764 3.555762882
3.838333848 13.36478514 3.233247109
7.152940342 17.34837268 4.207231444
6.409382837 17.34082155 3.951546243
4.244333154 12.93207726 2.771121134
5.803906361 17.61543587 1.692473129
5.104717488 17.61192119 1.499503933
6.533135705 17.62548615 1.206344629
5.803283801 17.59288137 1.013024239
5.112959591 17.60587528 0.828661849
