2.879766501 -1.12428337 -0.845551243
2.78848074 -0.969418303 -0.838668535
2.714651357 -0.830266313 -0.838406588
4.132804953 -1.797753292 -0.83180329
3.991808231 -1.565485255 -0.833154373
3.826748599 -1.341971316 -0.828510668
3.679542428 -1.137168178 -0.826763004
3.449232727 -1.505129532 -0.840306509
3.312902824 -1.302105512 -0.829591007
3.247469015 -1.139210446 -0.837799575
3.133167186 -0.969388483 -0.833669669
2.934787455 -1.284852354 -0.843887681
2.863739469 -1.128163445 -0.841857722
2.790031507 -0.97956198 -0.840034853
2.712091486 -0.838590848 -0.83840659
4.127269785 -1.810424063 -0.831803288
3.985161236 -1.57700221 -0.832772847
3.825384024 -1.354686507 -0.829111184
3.663904078 -1.144661267 -0.824034421
3.442812131 -1.51491842 -0.839870621
3.311608288 -1.313340278 -0.83027193
3.216483068 -1.13943498 -0.830703583
3.136653264 -0.981021456 -0.83539415
2.929947126 -1.293459576 -0.843632932
2.861161226 -1.1373002 -0.84212159
2.787013072 -0.988117048 -0.840034852
2.704013757 -0.845190766 -0.836707085
4.114501313 -1.819895461 -0.830351261
3.97574606 -1.587401133 -0.831819172
3.819364914 -1.365756478 -0.828710879
3.661307586 -1.156190962 -0.824244349
3.418522132 -1.516765784 -0.835076381
3.31841387 -1.327835687 -0.832995624
3.235843597 -1.157478899 -0.8366169
3.15488326 -0.997359193 -0.841060348
2.929498765 -1.304015466 -0.844651813
2.840648734 -1.139250921 -0.837108959
2.776723197 -0.99406904 -0.83784873
2.702322409 -0.853771509 -0.836990325
4.113389441 -1.834512733 -0.831258801
3.969946597 -1.599224285 -0.831628436
3.810549028 -1.375804096 -0.827709997
3.663331773 -1.169202003 -0.825503677
3.433452055 -1.53601457 -0.839870622
3.322452213 -1.341291386 -0.835038394
3.242329622 -1.171031475 -0.839218762
3.148115658 -1.005853612 -0.840074904
2.92195536 -1.311413104 -0.843632931
2.832669266 -1.146151598 -0.835789846
2.779088425 -1.004545244 -0.839488337
2.70425846 -0.863516742 -0.83840659
4.108638664 -1.847527083 -0.831440297
3.945924179 -1.603635049 -0.827622886
3.813674443 -1.390172573 -0.829311395
3.659727494 -1.180435344 -0.825503676
3.438509611 -1.550955213 -0.8422678
3.320125576 -1.352212856 -0.835492343
3.239634485 -1.181306142 -0.839455331
3.146859689 -1.016102849 -0.840567656
2.919680342 -1.321168668 -0.844142372
2.814851046 -1.149004202 -0.831568648
2.769667996 -1.010758269 -0.837575446
2.696120232 -0.870042063 -0.836707084
4.111907647 -1.864184084 -0.833255259
3.940985593 -1.615733423 -0.827622885
3.816747276 -1.404573227 -0.830912735
3.657018362 -1.191960691 -0.825713545
3.435512018 -1.562305127 -0.84270363
3.322267224 -1.3649833 -0.837081107
3.22870065 -1.188554321 -0.837563063
3.151098424 -1.028157457 -0.842538483
2.908575067 -1.326908991 -0.842104609
2.828259055 -1.164612832 -0.836581279
2.759332837 -1.016590292 -0.835389265
2.691614647 -0.877714893 -0.8361406
4.11600759 -1.881287265 -0.835251718
3.940545815 -1.629692349 -0.828576561
3.804154207 -1.413205468 -0.829111184
3.660773356 -1.205621383 -0.827392725
3.425379574 -1.57039738 -0.841396082
3.324361747 -1.377779656 -0.838669929
3.215020568 -1.194731278 -0.834961201
3.127679284 -1.031143997 -0.837118632
2.908004606 -1.337442331 -0.84312349
2.826454355 -1.174024293 -0.837108958
2.745381904 -1.021027319 -0.832109999
2.709859296 -0.892871386 -0.842655267
4.09413977 -1.886498461 -0.831984785
3.940963243 -1.644041851 -0.829721029
3.810809252 -1.428997898 -0.831513251
3.664479115 -1.219316363 -0.829071848
3.417001949 -1.579261021 -0.840524424
3.3273075 -1.390977205 -0.840485725
3.237722065 -1.214485336 -0.841820624
3.113467022 -1.037059461 -0.834162362
2.892482726 -1.341069853 -0.839812153
2.820170311 -1.181571964 -0.836317469
2.753943729 -1.033840223 -0.835662552
2.708017272 -0.901483834 -0.842938509
4.085657074 -1.897807321 -0.831440296
3.944043656 -1.659551198 -0.831437699
3.803658294 -1.439642049 -0.830912735
3.655160423 -1.228683887 -0.827812462
3.413025354 -1.590149048 -0.840742338
3.308666197 -1.395124438 -0.83685419
3.222168198 -1.21994037 -0.838745739
3.104759237 -1.044751935 -0.832684225
2.891858956 -1.351575368 -0.840831035
2.81742065 -1.190594062 -0.836581281
2.735467055 -1.036490063 -0.831016908
2.703420891 -0.909176237 -0.842372028
4.085159321 -1.912835143 -0.832529274
3.950681117 -1.676628928 -0.833917314
3.801054081 -1.452004014 -0.831313098
3.654151211 -1.240835034 -0.828442184
3.394879837 -1.594389359 -0.8374735
3.304370378 -1.405268786 -0.83685419
3.190274167 -1.219068734 -0.831413177
3.105209928 -1.055519968 -0.833669669
2.900820611 -1.366623096 -0.844651812
2.815529359 -1.19998862 -0.83710896
2.757431736 -1.054498233 -0.838668534
2.706975181 -0.919625422 -0.844354715
4.092611225 -1.93165536 -0.835251717
3.941006305 -1.686810339 -0.83296358
3.8066375 -1.467535416 -0.833514955
3.654951235 -1.253626057 -0.829491642
3.370566008 -1.595610211 -0.832679203
3.297358328 -1.414248165 -0.836173266
3.190145211 -1.23024905 -0.832359339
3.124873445 -1.072909806 -0.839828559
2.878270284 -1.366805179 -0.839302713
2.821582473 -1.212810863 -0.840010991
2.753286083 -1.062606559 -0.838395246
2.710490936 -0.93010491 -0.846337462
4.085777866 -1.943779828 -0.835070222
3.924997507 -1.694224857 -0.830674702
3.799377888 -1.478141465 -0.832914437
3.652935887 -1.265473514 -0.829911382
3.390317949 -1.617711632 -0.838781047
3.30283662 -1.428610626 -0.838669929
3.195410562 -1.243554291 -0.834724632
3.130723809 -1.085667132 -0.842292136
2.897614197 -1.386901398 -0.846180136
2.817848324 -1.22146156 -0.84001099
2.749116898 -1.070699402 -0.838121962
2.705812334 -0.937788124 -0.84577098
4.09664262 -1.964384247 -0.838518706
3.931482388 -1.711351908 -0.833154375
3.805769027 -1.494087282 -0.835316504
3.642576002 -1.274414383 -0.828442184
3.397652623 -1.634027349 -0.841831971
3.286833232 -1.43367495 -0.835719317
3.194293532 -1.254417195 -0.835434225
3.126463656 -1.094946621 -0.84204579
2.88986164 -1.394103934 -0.845161253
2.823809765 -1.234350682 -0.842913023
2.763724684 -1.086165591 -0.843587409
2.701112121 -0.94545134 -0.84520444
4.087940655 -1.975659477 -0.83797416
3.912730506 -1.717487217 -0.830293233
3.804811007 -1.507199409 -0.836117232
3.641414654 -1.28656077 -0.829071848
3.381206287 -1.638909464 -0.838998962
3.296683068 -1.450025844 -0.839350852
3.194043241 -1.265642994 -0.836380389
3.124003424 -1.104856464 -0.842292137
2.898616032 -1.409305886 -0.848982088
2.810300568 -1.238728575 -0.84001099
2.752331564 -1.091448106 -0.841127943
2.708145288 -0.95724954 -0.848320153
4.078323466 -1.986469429 -0.837248174
3.907442911 -1.729483178 -0.830293233
3.801078845 -1.519229022 -0.836317385
3.661393276 -1.306268465 -0.834529012
3.368269996 -1.645419744 -0.837037671
3.288657777 -1.458553704 -0.838442954
3.197362637 -1.27832186 -0.838272656
3.121511818 -1.114761518 -0.842538484
2.889068494 -1.415639029 -0.847453765
2.819708458 -1.253220966 -0.843968322
2.739145846 -1.095956263 -0.83812196
2.706099083 -0.965875913 -0.848603396
4.081037576 -2.003305549 -0.839063194
3.904807799 -1.742663088 -0.830865438
3.7954914 -1.530516956 -0.836117232
3.659208139 -1.318158044 -0.834948807
3.34569401 -1.647124233 -0.832679202
3.291280085 -1.471816879 -0.84025875
3.197030017 -1.289579071 -0.839218761
3.118988839 -1.124661783 -0.842784831
2.883844711 -1.424067754 -0.847199016
2.855460699 -1.279616364 -0.855840317
2.741122664 -1.106515154 -0.839761623
2.679664648 -0.9657194 -0.841239003
4.071346584 -2.014072383 -0.838337209
3.9048142 -1.757051512 -0.832009906
3.783517767 -1.539200563 -0.834515835
3.656065619 -1.329712279 -0.835158675
3.373847583 -1.673863637 -0.840960253
3.292963805 -1.484709629 -0.841847571
3.185858969 -1.296451562 -0.837326493
3.12189856 -1.13654616 -0.844509311
2.900240041 -1.443248215 -0.853312307
2.822513872 -1.275264665 -0.847134221
2.73147879 -1.112379971 -0.837848731
2.681195603 -0.975575614 -0.842655269
4.071308975 -2.02962489 -0.839607682
3.902087203 -1.77023971 -0.832582112
3.791467196 -1.556008802 -0.837318265
3.628105975 -1.332160708 -0.829701513
3.383536395 -1.691626 -0.84466492
3.287506709 -1.494402298 -0.841620597
3.197146789 -1.312492248 -0.8413476
3.110209768 -1.143109618 -0.842292136
2.900985131 -1.454740161 -0.85484063
2.82034383 -1.284717727 -0.847661843
2.723604285 -1.118927059 -0.836482355
2.664686457 -0.978836444 -0.83840659
4.072972051 -2.046078773 -0.841241149
3.905564644 -1.786285687 -0.834489519
3.778528382 -1.56426061 -0.835516715
3.641420507 -1.349741799 -0.833689422
3.381817156 -1.703755032 -0.845536638
3.255460518 -1.491903289 -0.834584446
3.200286496 -1.325268779 -0.84323981
3.101236177 -1.15062341 -0.840814
2.891329951 -1.461016603 -0.853312308
2.790968844 -1.281690619 -0.840010991
2.692610632 -1.115861272 -0.828010928
2.658073908 -0.98567318 -0.837273565
4.064043435 -2.057232508 -0.840696661
3.912546191 -1.804013808 -0.837159925
3.772807301 -1.575468138 -0.835316504
3.633599572 -1.359536623 -0.832849889
3.369612068 -1.710587975 -0.843793261
3.246447527 -1.499841623 -0.833449574
3.190826331 -1.332833892 -0.841820624
3.099506788 -1.160812374 -0.841306693
2.854949509 -1.453645741 -0.84388768
2.815908997 -1.303619705 -0.848717141
2.694499497 -1.126342824 -0.829650589
2.680186584 -1.003237197 -0.84520444
4.055960537 -2.068797428 -0.840333667
3.906993422 -1.816008901 -0.837159926
3.760732687 -1.583993042 -0.833715165
3.633070054 -1.372059674 -0.833689421
3.385201618 -1.731584676 -0.84902339
3.27184769 -1.523774013 -0.841166648
3.162546433 -1.332431342 -0.835434225
3.089584949 -1.167917161 -0.839582212
2.869404938 -1.472108868 -0.84949153
2.806651862 -1.309805157 -0.84713422
2.740668234 -1.155532296 -0.844953727
2.656461695 -1.003659155 -0.83868983
4.064463271 -2.088872854 -0.843419102
3.90407024 -1.829236364 -0.837732131
3.755855297 -1.595523273 -0.833715164
3.611484939 -1.376582838 -0.829701511
3.360787662 -1.732125574 -0.84422909
3.266275905 -1.533390899 -0.840939674
3.168280353 -1.346307502 -0.838036087
3.109530608 -1.186372825 -0.845987447
2.872606318 -1.484901594 -0.851783985
2.797383325 -1.315946238 -0.845551242
2.722061325 -1.157535665 -0.840308138
2.652473884 -1.011462558 -0.838406588
4.076374239 -2.11082861 -0.847230581
3.899327271 -1.841624467 -0.837922865
3.756346222 -1.609353707 -0.834916199
3.613632581 -1.390113477 -0.831170767
3.366717749 -1.748275294 -0.847062041
3.272119892 -1.548403307 -0.843663368
3.164134994 -1.35602129 -0.838036087
3.092309519 -1.190683247 -0.842292136
2.864606572 -1.491920812 -0.850765103
2.786360543 -1.321216128 -0.843440701
2.715845087 -1.164743887 -0.839488336
2.660099039 -1.023729039 -0.841805545
4.064647719 -2.120595611 -0.846141602
3.887454454 -1.850625116 -0.836587661
3.753189897 -1.621647604 -0.835316504
3.615730731 -1.403670236 -0.832639962
3.369121179 -1.762667908 -0.84902339
3.269990976 -1.559692558 -0.84434429
3.163527596 -1.36726424 -0.838982251
3.102192655 -1.205430214 -0.845987447
2.852309353 -1.496658513 -0.848472648
2.780553445 -1.328926455 -0.842913022
2.689303722 -1.16314224 -0.832383285
2.66677965 -1.035704425 -0.8449212
4.032008827 -2.11932972 -0.84069666
3.887068942 -1.865090917 -0.83773213
3.751789842 -1.63472001 -0.836117231
3.621421466 -1.418679583 -0.834948807
3.356790607 -1.769355237 -0.847280014
3.258168723 -1.566341706 -0.842528495
3.148629457 -1.372304914 -0.836143876
3.094870637 -1.213526753 -0.845002061
2.850268918 -1.506758048 -0.84923678
2.768642154 -1.333683361 -0.840538611
2.701593408 -1.178309587 -0.837302157
2.685912697 -1.052629746 -0.852002351
4.015928377 -2.126627287 -0.838700203
3.894584442 -1.883418027 -0.840593213
3.747654011 -1.646616846 -0.836317385
3.607959176 -1.426189023 -0.832849888
3.354794317 -1.781476287 -0.848151673
3.277888341 -1.588220676 -0.848883781
3.155078667 -1.386649588 -0.838982251
3.089330639 -1.222302811 -0.844509311
2.845632834 -1.515495422 -0.84923678
2.789701086 -1.354387966 -0.848189462
2.699726804 -1.187366932 -0.83784873
2.65056407 -1.048168579 -0.841805543
4.022399742 -2.145881231 -0.841422646
3.893200068 -1.897507972 -0.841546947
3.740793128 -1.657312971 -0.835917022
3.605383168 -1.437975729 -0.833269684
3.357058114 -1.795903611 -0.850112964
3.269499648 -1.596560213 -0.847975882
3.145479749 -1.393960749 -0.837563063
3.078365269 -1.228900344 -0.842538483
2.845230601 -1.526504492 -0.850510412
2.79073146 -1.365483941 -0.849772443
2.693433294 -1.19447408 -0.837028871
2.662478889 -1.062337468 -0.846620706
4.027057965 -2.164263459 -0.843782095
3.885598032 -1.908577638 -0.841165476
3.733007254 -1.667582886 -0.835316505
3.61274597 -1.453775049 -0.835998265
3.340363606 -1.800175429 -0.847280013
3.247983669 -1.598412868 -0.843663368
3.148285094 -1.40677541 -0.839455332
3.074580669 -1.238338903 -0.842538484
2.827773342 -1.528329494 -0.846689577
2.763170948 -1.362521448 -0.842649211
2.702050057 -1.208229127 -0.840854712
2.668103818 -1.074082374 -0.849453121
4.016075247 -2.174267357 -0.842874615
3.880604108 -1.920925006 -0.841356212
3.725193557 -1.677820699 -0.834715988
3.612798469 -1.466690855 -0.837047724
3.337398212 -1.811811938 -0.847933758
3.233466988 -1.603610303 -0.841166648
3.14484012 -1.416826757 -0.839691843
3.058196441 -1.242657931 -0.839089518
2.818824539 -1.534685807 -0.845416002
2.764160612 -1.373567724 -0.844232132
2.691315145 -1.2133504 -0.838668535
2.656798944 -1.079014981 -0.846903947
4.024062803 -2.194582339 -0.845960108
3.863273027 -1.927125125 -0.83887654
3.725381018 -1.691672077 -0.835917021
3.601043376 -1.474803519 -0.835368601
3.33182406 -1.822042435 -0.847933759
3.225047187 -1.611781313 -0.840258749
3.125439755 -1.419637305 -0.835670795
3.0579568 -1.253504903 -0.840074905
2.805624262 -1.538676709 -0.842868799
2.759933469 -1.382041588 -0.844232131
2.691082855 -1.223193637 -0.839761624
2.652588519 -1.086797311 -0.846620705
4.016448996 -2.206444365 -0.845778554
3.858219597 -1.939409352 -0.839067276
3.723737014 -1.70472473 -0.836717749
3.585658204 -1.481364488 -0.832849889
3.351008981 -1.84591173 -0.854253461
3.23313457 -1.628238818 -0.843663367
3.147571726 -1.441355368 -0.842766787
3.057679324 -1.26436205 -0.841060348
2.802583245 -1.548212213 -0.843378239
2.75223593 -1.388764401 -0.843176833
2.678572531 -1.227436741 -0.837028872
2.64924194 -1.094930162 -0.846620706
4.006219044 -2.216851758 -0.845052569
3.856629959 -1.953454922 -0.840021008
3.71759984 -1.715730418 -0.836517538
3.592828946 -1.497247432 -0.835578471
3.332529025 -1.849080999 -0.850984681
3.223781672 -1.63594674 -0.842528495
3.138724117 -1.448968924 -0.841584112
3.076148059 -1.283064167 -0.847219236
2.825705568 -1.572319452 -0.851783986
2.749681819 -1.398075865 -0.84370451
2.690512792 -1.242910162 -0.841947745
2.637018148 -1.099362431 -0.843788234
3.991668252 -2.224823191 -0.843419103
3.856739096 -1.96840139 -0.841356211
3.709653609 -1.725887917 -0.835917021
3.591823918 -1.509778389 -0.836418061
3.301282008 -1.845012424 -0.844447005
3.206607724 -1.639622077 -0.839350852
3.130740355 -1.456951882 -0.840637949
3.071303821 -1.292119797 -0.84697289
2.809058482 -1.57436219 -0.848217898
2.752247528 -1.410023663 -0.845815054
2.664014533 -1.240600396 -0.83484275
2.64158957 -1.110793286 -0.846337464
4.013978668 -2.253426602 -0.84959003
3.843698297 -1.976632953 -0.839830274
3.714985688 -1.742252985 -0.838319087
3.579973788 -1.517737843 -0.834738881
3.306662292 -1.861355542 -0.847280013
3.206756826 -1.652128348 -0.840712698
3.135052127 -1.470676424 -0.843003298
3.070001836 -1.302672152 -0.847711987
2.810952018 -1.586775848 -0.850255662
2.759908265 -1.424655003 -0.849508575
2.663678936 -1.25040263 -0.835935782
2.638169256 -1.118892292 -0.846337464
3.998486163 -2.260890364 -0.847775068
3.84981829 -1.994738535 -0.842500622
3.707851634 -1.752804806 -0.837918782
3.58878533 -1.534479744 -0.837887257
3.280560126 -1.859939059 -0.842049885
3.194758055 -1.658369251 -0.838896903
3.119106714 -1.474888289 -0.839928357
3.03836926 -1.300264016 -0.840074905
2.820361692 -1.60351736 -0.854585939
2.755524351 -1.433115504 -0.849508573
2.662438818 -1.259803108 -0.836755643
2.647068803 -1.132261229 -0.8503029
4.001785591 -2.278986844 -0.849953023
3.844550494 -2.006994442 -0.842691357
3.706879088 -1.766279278 -0.838919605
3.585856502 -1.546257122 -0.838307053
3.277380962 -1.871446848 -0.842703629
3.218997266 -1.683508442 -0.846614035
3.114567057 -1.484450613 -0.839928356
3.057501787 -1.319564548 -0.846480198
2.816268049 -1.612643026 -0.85484063
2.760512926 -1.446487222 -0.852410663
2.671584963 -1.274176865 -0.840854714
2.657672378 -1.146454918 -0.854834821
4.002452176 -2.295656838 -0.851586489
3.853144631 -2.026548027 -0.845933968
3.702326029 -1.778067653 -0.839119758
3.564060018 -1.549842987 -0.834319143
3.275008132 -1.883439075 -0.843575288
3.213817319 -1.69337625 -0.846614036
3.102991712 -1.490633114 -0.838036087
3.052550289 -1.32855187 -0.846233851
2.791202625 -1.609681309 -0.84872734
2.756062284 -1.454949581 -0.852410664
2.681534615 -1.289035311 -0.845227012
2.639192276 -1.1480995 -0.850019661
3.994538804 -2.307433505 -0.851404992
3.859052777 -2.044794295 -0.848604316
3.712727356 -1.797101448 -0.842722858
3.579882962 -1.569801006 -0.839146643
3.283571802 -1.901793239 -0.847280014
3.221510096 -1.71007765 -0.850018652
3.101901824 -1.501839564 -0.838982249
3.05822207 -1.342195101 -0.848943775
2.778725215 -1.613866037 -0.846434885
2.739662832 -1.457057287 -0.848717142
2.668044888 -1.292642541 -0.842221033
2.661127033 -1.167363759 -0.858233777
3.97809077 -2.314238174 -0.849408534
3.823317812 -2.040906911 -0.842119151
3.695748983 -1.802899086 -0.840120638
3.546435346 -1.568123932 -0.832430094
3.292896268 -1.920709326 -0.851202596
3.209378148 -1.716278912 -0.848202857
3.106011887 -1.515609972 -0.8413476
3.0540899 -1.351571308 -0.848943775
2.804645344 -1.640447895 -0.855859512
2.735179788 -1.465455595 -0.848717143
2.69345581 -1.31517233 -0.851512261
2.635606052 -1.165823436 -0.851152624
3.968426473 -2.324940723 -0.848864046
3.833465106 -2.061460701 -0.845743233
3.696355223 -1.817254891 -0.841521825
3.553216645 -1.584172643 -0.835158676
3.286988167 -1.930802716 -0.851202596
3.203240066 -1.725655125 -0.847975882
3.102219368 -1.525560682 -0.841584112
3.037538088 -1.355405674 -0.845494754
2.811264285 -1.655915725 -0.859425598
2.7425545 -1.480254057 -0.852410663
2.673872639 -1.315784545 -0.846593389
2.631141289 -1.17351321 -0.850869385
4.341069335 -1.951691067 -0.838992407
3.958734281 -2.335605597 -0.848319558
3.82712268 -2.073211786 -0.845743233
3.692518344 -1.829456479 -0.841922188
3.568850257 -1.604286355 -0.839986175
3.284409102 -1.942865543 -0.852074255
3.183379106 -1.727577475 -0.844117316
3.099265408 -1.535933874 -0.842057192
3.043087737 -1.369092409 -0.848204678
2.787041621 -1.653185995 -0.853567058
2.766812355 -1.504326454 -0.861380626
2.657758249 -1.317998575 -0.842767605
2.628403201 -1.181973262 -0.851152625
4.337752007 -1.966219695 -0.83951323
3.954086317 -2.349246638 -0.848864046
3.815573938 -2.08212229 -0.844598765
3.695654064 -1.845152941 -0.843923892
3.565692735 -1.616035008 -0.84040597
3.272563657 -1.949436619 -0.850548794
3.178918571 -1.737802933 -0.84434429
3.098015699 -1.547171471 -0.843003298
3.022985987 -1.371215689 -0.843770272
2.795239572 -1.669662894 -0.857642527
2.741034257 -1.501224203 -0.854785074
2.645957829 -1.322276126 -0.840308139
2.620397297 -1.188051474 -0.849736419
4.314680586 -1.971741433 -0.836214889
3.951923867 -2.364395909 -0.849953024
3.826372907 -2.103275542 -0.848413581
3.673346513 -1.84811585 -0.840120639
3.556271547 -1.624935124 -0.839356511
3.270752048 -1.96197769 -0.851638425
3.147125743 -1.732984602 -0.837308082
3.093254597 -1.556668865 -0.8430033
3.034629963 -1.387738705 -0.848204679
2.780159984 -1.672249508 -0.854585938
2.729659032 -1.505899095 -0.852674474
2.644466174 -1.331685528 -0.841127942
2.60888978 -1.192496841 -0.847187187
4.330078307 -1.994859054 -0.840381195
3.946336059 -2.377524101 -0.850316017
3.828490124 -2.119759793 -0.850320989
3.681641224 -1.866465243 -0.843323375
3.549493531 -1.635019919 -0.838936717
3.265552976 -1.972507694 -0.851856341
3.168195813 -1.757275692 -0.84434429
3.094530287 -1.569227576 -0.844659056
3.029478117 -1.396636591 -0.847958334
2.764263791 -1.67425842 -0.851274544
2.703947696 -1.502553414 -0.846078922
2.630074424 -1.334568956 -0.837848732
2.615671154 -1.205311619 -0.850586141
4.319471552 -2.006060131 -0.83951323
3.954997813 -2.399311178 -0.853764501
3.81939692 -2.130061092 -0.849748785
3.697710566 -1.88889413 -0.848327662
3.546234158 -1.646725466 -0.839356511
3.262821284 -1.984545457 -0.852728056
3.171291755 -1.771737331 -0.846614035
3.084509975 -1.57606152 -0.843239811
3.015511033 -1.401431153 -0.845248408
2.757463003 -1.681724132 -0.850765102
2.732993002 -1.529686271 -0.856631805
2.657657243 -1.358834366 -0.847959707
2.612830943 -1.213734817 -0.850869385
4.323999911 -2.024313271 -0.841596355
3.955171142 -2.416047366 -0.855397967
3.805141257 -2.137441962 -0.848032111
3.695382619 -1.902023174 -0.849128389
3.53053917 -1.652623361 -0.836837798
3.250891394 -1.990978467 -0.851202595
3.209127671 -1.805816015 -0.858189734
3.085707284 -1.588630419 -0.844895568
2.998032571 -1.404508719 -0.84155304
2.761355023 -1.695742418 -0.853567056
2.71568353 -1.530958419 -0.852674474
2.654331015 -1.367422113 -0.848232994
2.607357912 -1.220931687 -0.850302902
4.322222406 -2.039671163 -0.842464377
3.951928166 -2.430746274 -0.856305447
3.81907074 -2.160706956 -0.852609867
3.692139181 -1.914704624 -0.849728906
3.521915497 -1.661778281 -0.835998266
3.255567099 -2.007602214 -0.854035545
3.190862994 -1.808449978 -0.854785116
3.077368835 -1.5963002 -0.843949462
3.006855299 -1.419907629 -0.845248408
2.746269848 -1.698103347 -0.850510411
2.719361567 -1.544045464 -0.855312694
2.654392251 -1.377774783 -0.84959937
2.606201723 -1.230153302 -0.851152626
4.318612243 -2.054190893 -0.842985143
3.947796593 -2.444930449 -0.857031433
3.79963046 -2.165123731 -0.849748784
3.681905823 -1.923754405 -0.848728026
3.524747176 -1.676354834 -0.837887257
3.263487899 -2.026332636 -0.857740213
3.195449545 -1.824024555 -0.857508811
3.078484897 -1.608884185 -0.845605162
3.013861325 -1.434540841 -0.848451027
2.741868181 -1.70703199 -0.850765104
2.701214518 -1.544719685 -0.851091552
2.668053612 -1.395273126 -0.855338047
2.604147445 -1.23896732 -0.851719109
4.306961477 -2.064876019 -0.841943551
3.941111307 -2.457550852 -0.857212928
3.787861783 -2.173838933 -0.848604317
3.672518411 -1.933215854 -0.847927356
3.531049332 -1.69265503 -0.840615897
3.225808976 -2.016675527 -0.84945922
3.159442951 -1.816345182 -0.849337729
3.07095521 -1.616963171 -0.844895568
3.011193559 -1.444618823 -0.848943775
2.742353582 -1.719031001 -0.852548175
2.700642007 -1.555406614 -0.852410663
2.644186471 -1.393139159 -0.849052798
2.60379312 -1.248609593 -0.852852075
4.305926836 -2.08065079 -0.842985144
3.931887563 -2.468584603 -0.856849936
3.772675624 -2.180537325 -0.846696907
3.659645587 -1.940801599 -0.846325959
3.51263421 -1.697100099 -0.837467519
3.255948914 -2.0494381 -0.859047759
3.166497856 -1.833349486 -0.852742346
3.085721737 -1.636849399 -0.850335804
3.003257262 -1.452162764 -0.847958333
2.745244356 -1.732597499 -0.855095379
2.69335419 -1.562232908 -0.851619173
2.616959068 -1.38906796 -0.841674516
2.609448405 -1.261182731 -0.855967787
4.304835276 -2.096438559 -0.844026733
3.928451891 -2.48326308 -0.857757418
3.756635936 -2.18666945 -0.844598765
3.65713065 -1.95386685 -0.847126628
3.523233964 -1.715573367 -0.84124556
3.259538532 -2.065686866 -0.861662853
3.161699775 -1.843546086 -0.852969321
3.074686863 -1.643102904 -0.848680105
2.991818157 -1.457973169 -0.845987448
2.751342535 -1.748272349 -0.858661409
2.714368071 -1.585570736 -0.859797647
2.64916084 -1.416594894 -0.853425154
2.601255889 -1.267082646 -0.85455158
4.302803686 -2.111805182 -0.844894696
3.918325937 -2.493719666 -0.857212929
3.760071952 -2.20414146 -0.846887643
3.664923052 -1.972506981 -0.850329424
3.508299136 -1.72163636 -0.838936717
3.244958005 -2.070427666 -0.859483589
3.145111415 -1.846826495 -0.850018653
3.053376404 -1.643777343 -0.844185974
2.999510037 -1.473126482 -0.849436469
2.747594944 -1.757747374 -0.859170848
2.692031718 -1.583620308 -0.854257394
2.61600851 -1.409204991 -0.844133924
2.59735636 -1.275057163 -0.85455158
4.291890822 -2.122812933 -0.844026733
3.906516496 -2.503076686 -0.856305447
3.784569628 -2.234130673 -0.853945071
3.669189985 -1.989345322 -0.852731433
3.512641214 -1.737159218 -0.841245561
3.247623452 -2.086175567 -0.861880768
3.139430461 -1.856466819 -0.850018652
3.067963455 -1.663790682 -0.84962621
2.9984508 -1.484041555 -0.850421911
2.734059513 -1.760932464 -0.856623701
2.676372022 -1.585480855 -0.850827684
2.643800741 -1.434658372 -0.854518243
2.593432299 -1.283019755 -0.85455158
4.284476804 -2.135531001 -0.843853165
3.88642317 -2.5070536 -0.853583003
3.788667022 -2.252252109 -0.856424684
3.661349571 -1.99965356 -0.852331126
3.518671103 -1.75359714 -0.843974143
3.24284687 -2.097189219 -0.862316597
3.131209863 -1.864594841 -0.849337729
3.070518726 -1.677387521 -0.851755047
2.995618239 -1.494098809 -0.850914604
2.738380632 -1.775625448 -0.859680289
2.672323763 -1.594178518 -0.851091553
2.638542912 -1.44230134 -0.854244958
2.598925078 -1.29567717 -0.857667236
4.286705203 -2.153085766 -0.845589091
3.880362901 -2.520036567 -0.853945997
3.78847741 -2.267898517 -0.857950622
3.656055965 -2.011349341 -0.852531279
3.530749236 -1.7731598 -0.848171978
3.2380333 -2.108193363 -0.862752427
3.143014746 -1.884710417 -0.854104193
3.061101819 -1.684457712 -0.850572372
2.997082012 -1.506328788 -0.852639085
2.730491096 -1.782432529 -0.858916158
2.669900785 -1.603859751 -0.851882984
2.613882102 -1.439254033 -0.847686478
2.58465393 -1.298478015 -0.854268337
4.285351415 -2.168895453 -0.846630681
3.877552006 -2.535158199 -0.855034975
3.78402392 -2.281031269 -0.858522828
3.653296052 -2.024456038 -0.85333195
3.521802947 -1.782217756 -0.847332387
3.232366626 -2.118652526 -0.862970342
3.143887409 -1.898371517 -0.85591999
3.055069751 -1.693370109 -0.850335803
2.984665085 -1.511575627 -0.850421911
2.72824226 -1.792925469 -0.859935039
2.651762421 -1.60405549 -0.847661841
2.613660385 -1.449599351 -0.849052798
2.578946796 -1.305535237 -0.853701798
4.271658796 -2.178453246 -0.845241894
3.869755991 -2.547042384 -0.855034974
3.768616517 -2.287535993 -0.856615419
3.641079285 -2.032311997 -0.851930763
3.512834525 -1.791237592 -0.846492855
3.211188404 -2.118884042 -0.859047759
3.144705698 -1.912055621 -0.857735785
3.048163645 -1.701787624 -0.84986278
3.011954657 -1.537025121 -0.859537072
2.720309235 -1.799686477 -0.859170848
2.644357395 -1.610678149 -0.846870352
2.598283589 -1.451512343 -0.8455003
2.571512095 -1.31169805 -0.852568832
4.257947863 -2.187947302 -0.843853164
3.866022359 -2.561618598 -0.855942455
3.754879949 -2.294991767 -0.85508948
3.630556738 -2.04107247 -0.850929939
3.513410272 -1.805134078 -0.847962052
3.228248428 -2.144386302 -0.86536752
3.140485947 -1.922711449 -0.858189734
3.04038756 -1.709702618 -0.849153187
2.991710505 -1.538281234 -0.855102665
2.715580025 -1.808559913 -0.859425598
2.663248716 -1.633407886 -0.854521206
2.581243102 -1.452401274 -0.84140123
2.567475828 -1.319581189 -0.852568833
4.255587849 -2.203264166 -0.844721127
3.864690042 -2.577832804 -0.857394425
3.729429148 -2.295181744 -0.850893194
3.626835569 -2.053649516 -0.851530457
3.528694336 -1.826692058 -0.852999477
3.226521978 -2.157535425 -0.866675009
3.133743233 -1.931826259 -0.857962759
3.041891442 -1.722853006 -0.851045397
2.973208028 -1.540319268 -0.85116095
2.71323137 -1.819036635 -0.860444479
2.660686867 -1.643091351 -0.855312694
2.600207863 -1.473593408 -0.849052797
2.561711994 -1.326569921 -0.85200235
4.442317743 -2.529532888 -0.848764229
4.243569302 -2.213577026 -0.843679536
3.875540641 -2.602285853 -0.861568894
3.73321775 -2.31333443 -0.853372865
3.607751671 -2.057486105 -0.848527872
3.51787208 -1.834796589 -0.85174015
3.209362404 -2.160339147 -0.863842058
3.121182129 -1.937322598 -0.856146964
3.028151796 -1.727362947 -0.848680104
2.957299088 -1.543603674 -0.847958332
2.710042704 -1.828975056 -0.861208613
2.652356921 -1.649209151 -0.854257394
2.602358143 -1.48537857 -0.851238976
2.557629973 -1.334422831 -0.852002348
4.440526444 -2.546585242 -0.849910725
4.238501886 -2.227501863 -0.844026733
3.86102084 -2.609758076 -0.860116867
3.724437155 -2.323737803 -0.852991337
3.606519855 -2.07147285 -0.849728906
3.504437021 -1.841487348 -0.849851101
3.195447898 -2.165247918 -0.861880767
3.122656701 -1.95153434 -0.858189734
3.014413104 -1.7318049 -0.846314753
2.951691759 -1.552218202 -0.847711987
2.702818983 -1.836193885 -0.860699172
2.647284693 -1.657338727 -0.854257394
2.587781204 -1.487602626 -0.847959707
2.547581772 -1.339139617 -0.85001966
4.431838899 -2.559703199 -0.849746933
4.247314525 -2.248789708 -0.847151449
3.856248264 -2.623804039 -0.860842852
3.713134309 -2.332542365 -0.852037662
3.613717329 -2.090376962 -0.852931643
3.485809239 -1.845368384 -0.846702724
3.185564996 -2.172841344 -0.86100905
3.107587621 -1.955399922 -0.855693015
2.990584057 -1.730339765 -0.841111031
2.980315872 -1.578961763 -0.85731984
2.710742412 -1.85375703 -0.865029447
2.634843623 -1.660823561 -0.851882983
2.594027489 -1.501800384 -0.851512263
2.570582449 -1.361311888 -0.859083499
4.429933666 -2.576759804 -0.850893486
4.249953353 -2.26690795 -0.84906106
3.854671169 -2.640068075 -0.86229488
3.71342741 -2.348645656 -0.853754335
3.60051429 -2.097508409 -0.851330245
3.480994025 -1.856514086 -0.846912593
3.171642757 -2.177632691 -0.859047761
3.108978217 -1.969615507 -0.857735785
3.002890682 -1.749779258 -0.846078241
2.95151713 -1.575320107 -0.850421912
2.694687538 -1.854936704 -0.861718054
2.640323246 -1.675618386 -0.855312694
2.585252673 -1.507329087 -0.850145885
2.556240103 -1.363774734 -0.855684546
4.424561121 -2.591834423 -0.851384867
4.245581041 -2.281334457 -0.849581826
3.834408921 -2.643508841 -0.859572379
3.697096277 -2.354227325 -0.851656192
3.614343865 -2.120443418 -0.856134379
3.486478521 -1.87320057 -0.849641231
3.16012968 -2.184023654 -0.857740214
3.094709925 -1.973907181 -0.85546604
3.00505044 -1.763409544 -0.848207024
2.980814807 -1.602726567 -0.860276169
2.684214932 -1.85989072 -0.860189732
2.631918993 -1.681633468 -0.854257395
2.569832631 -1.508921594 -0.84659339
2.541062103 -1.365708449 -0.85200235
4.416588631 -2.605396505 -0.851384866
4.252419438 -2.301849885 -0.852359345
3.829512465 -2.657502801 -0.860298364
3.693161697 -2.367678023 -0.852419132
3.60360393 -2.12903038 -0.8551335
3.472116839 -1.879234331 -0.847542315
3.173443549 -2.207642098 -0.863188257
3.091917405 -1.985497344 -0.856373938
3.002972062 -1.774597805 -0.849153185
2.978440262 -1.613248864 -0.861015208
2.677702867 -1.867563724 -0.859935038
2.617012552 -1.683438205 -0.851091552
2.573471277 -1.521694705 -0.849326084
2.542763899 -1.376694133 -0.853985098
4.410271011 -2.619941818 -0.851712454
4.241878824 -2.312999457 -0.851665008
3.833434111 -2.677686176 -0.863020864
3.704025254 -2.390708655 -0.856615419
3.584424931 -2.132561664 -0.852130973
3.488654226 -1.902046384 -0.852999478
3.173051384 -2.221845945 -0.864931633
3.099715162 -2.003962577 -0.860232504
3.010037979 -1.791255725 -0.852701153
2.96496901 -1.617736964 -0.858551629
2.685415494 -1.885215566 -0.864265257
2.636933769 -1.707713085 -0.859270025
2.577055777 -1.534504274 -0.852058779
2.539370214 -1.384947941 -0.854268339
4.404752338 -2.634979459 -0.852203836
4.24339435 -2.330743636 -0.853400935
3.821983186 -2.687172032 -0.86229488
3.704081505 -2.40687478 -0.858332092
3.594674888 -2.153619327 -0.85613438
3.477660488 -1.90991657 -0.851740151
3.172601704 -2.236068453 -0.866675009
3.073146512 -2.000181481 -0.854558142
3.003694982 -1.799982523 -0.852464642
2.970184062 -1.632427412 -0.8615079
2.662244735 -1.881168525 -0.858661409
2.617946214 -1.706839365 -0.854785074
2.581410821 -1.54784478 -0.85506476
2.551079866 -1.401506038 -0.859649985
4.404252617 -2.653061708 -0.853677918
4.238809011 -2.34518162 -0.85392176
3.812115541 -2.697748739 -0.861931886
3.713931012 -2.42951257 -0.862337643
3.590567507 -2.166155673 -0.856734896
3.464084693 -1.916317332 -0.849851102
3.166522652 -2.24635595 -0.866892924
3.099579941 -2.030950611 -0.863637122
2.995662777 -1.807683272 -0.851755048
2.965161904 -1.641532134 -0.8615079
2.658824972 -1.891008724 -0.859425599
2.628018736 -1.724919349 -0.859797648
2.593119383 -1.565701274 -0.860530206
2.547607019 -1.409790352 -0.859933223
4.407900669 -2.673724119 -0.855971027
4.241917222 -2.363927789 -0.856004883
3.800617292 -2.707149413 -0.861205845
3.713838429 -2.445754354 -0.864054316
3.583904992 -2.177161364 -0.856734897
3.466729961 -1.931694982 -0.851950019
3.161204563 -2.257194277 -0.86732881
3.095773274 -2.042059298 -0.864318045
3.000066943 -1.822919832 -0.854593421
2.950800657 -1.645429266 -0.858797975
2.658515059 -1.90309705 -0.861208612
2.609838129 -1.724465895 -0.855576505
2.580084356 -1.568652185 -0.857797513
2.527353547 -1.408728004 -0.85455158
4.398835046 -2.686720432 -0.855807232
4.235503734 -2.377412736 -0.856178511
3.79069541 -2.71765095 -0.860842852
3.706317407 -2.457136734 -0.864054316
3.585566609 -2.193258731 -0.8587366
3.46334516 -1.94375726 -0.852579683
3.146339411 -2.261186493 -0.865149547
3.09111636 -2.052624914 -0.864771994
2.979541803 -1.822987723 -0.850335803
2.949963708 -1.656847498 -0.860029764
2.647171773 -1.907287356 -0.859425598
2.590882126 -1.723382935 -0.851091552
2.580182109 -1.579573894 -0.859437118
2.531382519 -1.421170109 -0.857383995
4.387210474 -2.698136275 -0.855152059
4.224760823 -2.388457195 -0.855484117
3.783137381 -2.729843212 -0.861024348
3.683248116 -2.458142475 -0.860430235
3.57965509 -2.204762725 -0.858936811
3.459067732 -1.955335747 -0.852999477
3.130688835 -2.26453674 -0.862752427
3.088043209 -2.064263465 -0.865679892
2.99709781 -1.846389881 -0.856958772
2.917029182 -1.650142654 -0.851900047
2.642873663 -1.91653509 -0.859935039
2.612031647 -1.749034005 -0.859797648
2.577780487 -1.588996659 -0.860256921
2.516157753 -1.422792839 -0.853701799
4.38142834 -2.713141293 -0.85564344
4.207999059 -2.39604717 -0.853574562
3.774744582 -2.741436902 -0.861024348
3.676504024 -2.46997843 -0.86062097
3.574539394 -2.216767177 -0.859337116
3.450503547 -1.964487574 -0.852369813
3.12372663 -2.274130788 -0.862752427
3.068767564 -2.065028264 -0.862048299
2.98894202 -1.854039723 -0.856249121
2.932163175 -1.670598896 -0.85781259
2.633856929 -1.92235385 -0.858916157
2.613851798 -1.761891578 -0.862172057
2.583518204 -1.60349225 -0.863809416
2.519281189 -1.434777194 -0.856251029
4.370572418 -2.725004916 -0.855152059
4.200628373 -2.408945755 -0.853574562
3.763140692 -2.750683464 -0.860298364
3.667282721 -2.480146467 -0.860239501
3.564397344 -2.22564764 -0.858536446
3.44106771 -1.973118903 -0.851530224
3.124607605 -2.289472008 -0.864931633
3.054354414 -2.068971474 -0.859778554
2.987360356 -1.865774402 -0.857431796
2.92702396 -1.679586803 -0.857812589
2.636519521 -1.93672286 -0.861718053
2.60843421 -1.769902391 -0.862172058
2.585928508 -1.615998842 -0.866268883
2.514867484 -1.442499531 -0.856251029
4.367204969 -2.741547774 -0.856134821
4.194924008 -2.422806814 -0.853921761
3.759436734 -2.765712252 -0.861387399
3.658845053 -2.490833368 -0.860048765
3.554234531 -2.234486638 -0.857735776
3.420604543 -1.975354622 -0.847962053
3.124638063 -2.30426067 -0.866892923
3.043164631 -2.075040478 -0.858416707
2.98820219 -1.879068466 -0.859324064
2.915983402 -1.685164338 -0.856088107
2.643006726 -1.95400044 -0.86579358
2.606177992 -1.780072842 -0.863227358
2.559789816 -1.610605448 -0.859163831
2.516243277 -1.45356625 -0.858233776
4.549664689 -3.113547835 -0.861840693
4.358773263 -2.754933272 -0.85613482
4.195132677 -2.44012158 -0.855484117
3.753304885 -2.778988534 -0.861931887
3.656854179 -2.505931074 -0.86138391
3.549018169 -2.246428434 -0.858136082
3.423824928 -1.991246457 -0.850270895
3.114419296 -2.311509453 -0.866021265
3.033572434 -2.082162636 -0.857508811
2.982423345 -1.888227299 -0.859324065
2.902423229 -1.689227407 -0.853624529
2.633120443 -1.959213656 -0.864520007
2.599909597 -1.787513575 -0.862963546
2.533708545 -1.605067096 -0.852058778
2.530838172 -1.472371395 -0.864748387
4.540091094 -3.127491473 -0.861840694
4.35279749 -2.769881636 -0.8566262
4.1850772 -2.451487305 -0.854963292
3.75106967 -2.795191042 -0.863383856
3.646724838 -2.515466305 -0.860811705
3.550372122 -2.262571667 -0.860137787
3.423605411 -2.005200166 -0.851740149
3.095584239 -2.312292661 -0.862752427
3.0311766 -2.094227521 -0.858643683
2.978254986 -1.898412897 -0.859797146
2.888029533 -1.692733029 -0.850914603
2.627097162 -1.967282748 -0.864520006
2.588861317 -1.791639272 -0.861116816
2.549047924 -1.62576446 -0.858890543
2.494037152 -1.461221357 -0.853701798
4.534534567 -3.1442204 -0.862612933
4.343448791 -2.782690704 -0.856462408
4.178384625 -2.464815918 -0.855136919
3.744836813 -2.808456107 -0.863928346
3.651891664 -2.535600033 -0.863863581
3.539290851 -2.270808016 -0.859136964
3.431754144 -2.024138477 -0.855308265
3.075213674 -2.31180903 -0.859047759
3.041527997 -2.115194062 -0.863410146
2.969145842 -1.905441976 -0.858850983
2.886161386 -1.70355605 -0.851900048
2.619504743 -1.974169155 -0.864010565
2.587309654 -1.802330004 -0.862435924
2.489006694 -1.598234169 -0.840308139
2.493672424 -1.471302708 -0.855118062
4.536209471 -3.166033915 -0.86477527
4.334890911 -2.796003106 -0.856462407
4.167416491 -2.47561157 -0.854442527
3.729923532 -2.815192435 -0.862476375
3.62639376 -2.534420875 -0.859667295
3.545475349 -2.290161378 -0.8623397
3.428890326 -2.036654723 -0.856147854
3.061880183 -2.316522078 -0.857304383
3.046992227 -2.132892907 -0.866814765
2.959205536 -1.911905906 -0.857668366
2.875922587 -1.70943139 -0.850421911
2.623451921 -1.98979323 -0.867321902
2.588086308 -1.814689375 -0.864546468
2.480052552 -1.603251614 -0.838941763
2.491620383 -1.48041593 -0.855967788
4.532133908 -3.183911463 -0.865856438
4.327120022 -2.809826248 -0.856626201
4.162337063 -2.489901953 -0.854963292
3.722835303 -2.827812101 -0.862839368
3.622615726 -2.548358495 -0.86062097
3.525290723 -2.292481913 -0.859136964
3.417591485 -2.044153451 -0.854888527
3.072618525 -2.33950312 -0.862316598
3.041230214 -2.142791725 -0.867041737
2.947624394 -1.917267178 -0.856012608
2.878980614 -1.723224117 -0.852885433
2.617335109 -1.997832603 -0.867321904
2.577778331 -1.819283874 -0.862963547
2.517852246 -1.638662319 -0.853425154
2.48130592 -1.484606377 -0.853985098
4.521537784 -3.197230298 -0.865701944
4.323433465 -2.826327341 -0.857608904
4.15467866 -2.502660022 -0.854963292
3.702423204 -2.830261908 -0.860116868
3.62199072 -2.564565704 -0.862337643
3.521519752 -2.305433095 -0.859937633
3.420516933 -2.060178008 -0.857197314
3.069299857 -2.351886807 -0.863406228
3.026697908 -2.146478381 -0.864771994
2.925471486 -1.91565582 -0.851281967
2.899412187 -1.747558029 -0.860522515
2.597389677 -1.995249348 -0.862736934
2.574543679 -1.828859602 -0.863755035
2.503962494 -1.640580254 -0.850419174
2.480846699 -1.494686576 -0.855401304
4.510902274 -3.210514404 -0.865547507
4.313918257 -2.839035727 -0.857445111
4.160453477 -2.52356652 -0.857740868
3.720223315 -2.861994651 -0.866287796
3.622099745 -2.581362845 -0.864245051
3.516066465 -2.317304521 -0.860337998
3.417524103 -2.072690189 -0.858036845
3.069798645 -2.367252045 -0.865585435
3.012171487 -2.150095743 -0.862502248
2.923636569 -1.927295798 -0.852464641
2.906464881 -1.763987762 -0.864217824
2.596611557 -2.007348743 -0.864520006
2.567351433 -1.835627549 -0.863227356
2.517386164 -1.660436463 -0.856704422
2.477069369 -1.502788012 -0.855684545
4.500228315 -3.223763091 -0.865393071
4.306010206 -2.852802257 -0.857608905
4.14428734 -2.531185485 -0.856004884
3.718423658 -2.878812775 -0.867921262
3.60937726 -2.589030307 -0.863100583
3.519553838 -2.335122391 -0.862940217
3.407811437 -2.081127077 -0.857197313
3.062521554 -2.376659083 -0.865585436
3.012679432 -2.16444107 -0.864545019
2.937949458 -1.949687776 -0.85837796
2.890288668 -1.766326357 -0.861015207
2.607995531 -2.028962592 -0.870378548
2.55857624 -1.841241866 -0.862172059
2.509876142 -1.666555511 -0.855884562
2.481449976 -1.515880127 -0.85880026
4.48390545 -3.232931813 -0.864157467
4.293134189 -2.86326246 -0.856789937
4.142374104 -2.547499339 -0.857220101
3.706471092 -2.887789683 -0.867195277
3.603009038 -2.601240695 -0.863482111
3.524594466 -2.354071612 -0.865942801
3.393081952 -2.086450939 -0.855098395
3.064445883 -2.39325219 -0.868200471
3.00286807 -2.171390977 -0.863637121
2.928722275 -1.956533004 -0.857431796
2.884856048 -1.77518534 -0.861015207
2.613941071 -2.046492443 -0.874454075
2.55057177 -1.847385315 -0.861380626
2.4935553 -1.666763961 -0.852058779
2.466984989 -1.517456375 -0.855401305
4.470767557 -3.244352023 -0.863539665
4.293338506 -2.882468857 -0.858591664
4.138725412 -2.562788483 -0.858088065
3.694498401 -2.896720239 -0.866469292
3.599776427 -2.615744528 -0.864626521
3.514916285 -2.363233796 -0.865342283
3.393315123 -2.100968468 -0.856777518
3.055554245 -2.401436172 -0.86776464
3.002491804 -2.185178106 -0.865452917
2.917868314 -1.962255798 -0.856012609
2.86868622 -1.777391734 -0.85781259
2.610688538 -2.056896097 -0.875472957
2.542553621 -1.853497016 -0.860589136
2.496410647 -1.679776355 -0.854791529
2.461502618 -1.524512794 -0.855118063
4.452016512 -3.25164269 -0.861840694
4.291831175 -2.900598624 -0.860065806
4.129172268 -2.574431755 -0.857740869
3.694086285 -2.914741604 -0.86846575
3.579849203 -2.618084102 -0.861765438
3.50927234 -2.375104711 -0.865742648
3.389342572 -2.112920863 -0.857407182
3.058889321 -2.419275285 -0.870815564
2.994987936 -2.193803803 -0.865225943
2.921489641 -1.977734499 -0.858850982
2.868975827 -1.78977515 -0.859537072
2.601334752 -2.062492648 -0.874454074
2.541521521 -1.864712393 -0.862172059
2.499209893 -1.692821938 -0.857524225
2.467393015 -1.538654528 -0.858800259
4.454756691 -3.274648824 -0.864311903
4.290252993 -2.918746101 -0.86153989
4.127927286 -2.591276385 -0.859129656
3.686666948 -2.927284249 -0.868828743
3.582868261 -2.637201297 -0.864435787
3.50358853 -2.386963053 -0.866142953
3.379531842 -2.121230003 -0.856567649
3.040761845 -2.420139613 -0.86776464
2.983539831 -2.199514686 -0.863864096
2.917014219 -1.987782552 -0.859324065
2.867574781 -1.801146125 -0.86076886
2.595750958 -2.071066941 -0.874708825
2.541996133 -1.877084667 -0.864282657
2.489236036 -1.697230019 -0.855884563
2.482154207 -1.558456322 -0.86559811
4.665078666 -3.722221461 -0.875860881
4.437540929 -3.283011876 -0.862921863
4.283719725 -2.933566982 -0.86203127
4.127450237 -2.608663914 -0.860692013
3.676132092 -2.93735321 -0.868465749
3.570027877 -2.64467495 -0.863291319
3.489784853 -2.393267732 -0.864541614
3.371355211 -2.130543618 -0.856147855
3.033322796 -2.429457216 -0.867764642
2.973649226 -2.206336467 -0.862956198
2.904492111 -1.992325577 -0.857431796
2.858759118 -1.807863188 -0.859783419
2.578828088 -2.07054475 -0.871142737
2.533128693 -1.882573176 -0.863227358
2.47291374 -1.697238251 -0.852058779
2.477361217 -1.566064199 -0.86559811
4.6412934 -3.726605037 -0.873537671
4.43933445 -3.305461287 -0.865238635
4.275511992 -2.94725522 -0.862195064
4.131890555 -2.629245089 -0.863295962
3.667869495 -2.949233828 -0.868647245
3.549305538 -2.646227346 -0.860239501
3.490489132 -2.409529079 -0.866543318
3.377176587 -2.148749551 -0.859296232
3.034973577 -2.446101091 -0.870379676
2.952820125 -2.204960332 -0.858870657
2.910359173 -2.009508178 -0.86097982
2.864644552 -1.82391256 -0.863232439
2.558924384 -2.067507617 -0.86655777
2.519616998 -1.884558578 -0.860589137
2.476400855 -1.71083151 -0.855064761
2.457981491 -1.564388307 -0.860499706
4.625220641 -3.737096093 -0.87266643
4.433125852 -3.32202784 -0.866010873
4.270502127 -2.963170354 -0.863014031
4.129609121 -2.645627978 -0.864511121
3.664155577 -2.964802936 -0.869917777
3.545096226 -2.66004983 -0.861193176
3.473425212 -2.413517425 -0.86414125
3.400206992 -2.178086315 -0.866852313
3.016842653 -2.446793956 -0.86732881
2.962391208 -2.22629606 -0.863637121
2.900989072 -2.016209495 -0.860033658
2.860667283 -1.833738635 -0.863725132
2.567575469 -2.087549305 -0.871652178
2.523071068 -1.899240944 -0.863755037
2.485356026 -1.728306399 -0.859983634
2.453978042 -1.572439312 -0.860782949
4.613733748 -3.751268268 -0.87266643
4.422124252 -3.335017994 -0.865856437
4.267052661 -2.980212101 -0.864160527
4.109059312 -2.650278096 -0.861907174
3.658855346 -2.979135048 -0.870825258
3.551019145 -2.681561667 -0.864626521
3.470821561 -2.427531583 -0.865342284
3.382826849 -2.181619066 -0.864123731
3.001004715 -2.449250079 -0.864931634
2.967198363 -2.244186503 -0.867041739
2.898770508 -2.02788477 -0.861216332
2.847699208 -1.837776646 -0.861507901
2.546190205 -2.08316993 -0.86655777
2.504930745 -1.897653254 -0.859533837
2.460340287 -1.722132965 -0.853151869
2.460424908 -1.587239123 -0.864748385
4.602203125 -3.765405551 -0.87266643
4.413445957 -3.349763755 -0.86616531
4.261117634 -2.995558768 -0.864815702
4.097604914 -2.660726585 -0.861212779
3.651980244 -2.992215865 -0.871369746
3.545120226 -2.694225201 -0.865198726
3.459351784 -2.4353486 -0.864341403
3.389238459 -2.200505774 -0.867481976
2.982163058 -2.449154326 -0.861662853
2.952549749 -2.247380467 -0.864771993
2.895713125 -2.039006261 -0.862162496
2.846923819 -1.849672721 -0.862986036
2.545759656 -2.095888887 -0.868595535
2.499097011 -1.90532942 -0.859533838
2.486500061 -1.751834085 -0.864082704
2.455543738 -1.59478018 -0.864748386
4.592157019 -3.780764904 -0.872956824
4.410214264 -3.368686011 -0.867555408
4.25512843 -3.010896704 -0.865470876
4.087774357 -2.672207711 -0.860865584
3.639747997 -3.000903506 -0.870643761
3.525141888 -2.696143331 -0.862337643
3.452663426 -2.446516678 -0.864541614
3.394747623 -2.218917585 -0.870630353
2.978396713 -2.461400473 -0.862752427
2.941775338 -2.253467042 -0.863637121
2.884687716 -2.044509501 -0.860743252
2.834746972 -1.854154126 -0.861015208
2.531126134 -2.096903079 -0.86579358
2.495535535 -1.914749133 -0.860325327
2.457573857 -1.742761255 -0.855884564
2.454652921 -1.604930276 -0.866164649
4.590440903 -3.803041195 -0.874844443
4.410825071 -3.390630364 -0.869717687
4.251495939 -3.027942999 -0.86661743
4.082024785 -2.68636036 -0.861386408
3.631281214 -3.012684079 -0.870825259
3.532411606 -2.718920824 -0.86615246
3.4475345 -2.458804454 -0.865142131
3.387924074 -2.229322147 -0.870630353
2.969330435 -2.469278475 -0.862316598
2.944875116 -2.270211529 -0.86658779
2.881565577 -2.055607067 -0.861689414
2.829045051 -1.862842338 -0.861015207
2.538050996 -2.1158043 -0.870378549
2.524005239 -1.948924206 -0.872197321
2.45143252 -1.749733946 -0.855611333
2.443308824 -1.608235276 -0.863898661
4.575712027 -3.814572608 -0.874263656
4.40509076 -3.407773815 -0.870644419
4.240582334 -3.039822844 -0.866289842
4.077047897 -2.701046876 -0.862080802
3.616737017 -3.019398907 -0.869554785
3.526381522 -2.731548498 -0.866724664
3.440770675 -2.469941228 -0.865342284
3.368842191 -2.231606458 -0.867481978
2.961740789 -2.478376631 -0.862316597
2.922506682 -2.267296143 -0.8620483
2.871299149 -2.061604465 -0.860506739
2.824932374 -1.872583927 -0.861507901
2.540438133 -2.131038566 -0.873435192
2.491356467 -1.935943775 -0.862963548
2.446052842 -1.75724661 -0.855611333
2.435165668 -1.613604661 -0.862765697
4.567019549 -3.831136028 -0.874844444
4.396953818 -3.423093261 -0.871107786
4.22883634 -3.051086724 -0.865798462
4.065464637 -2.711356792 -0.861386408
3.60519772 -3.028582974 -0.869010296
3.519533094 -2.743561656 -0.867106135
3.429205983 -2.477616736 -0.864341404
3.357099031 -2.238676592 -0.866222648
2.953376861 -2.486822882 -0.862098683
2.954687124 -2.306817479 -0.873623999
2.859448114 -2.066420105 -0.858850982
2.831266672 -1.889311221 -0.865203269
2.533888243 -2.138822648 -0.873435193
2.489964257 -1.947143157 -0.864546468
2.448445279 -1.770378999 -0.858344027
2.433394906 -1.623196822 -0.863898661
4.543147556 -3.834918484 -0.872521234
4.384875961 -3.43534822 -0.870798856
4.219456112 -3.064046336 -0.865798463
4.050586155 -2.719425159 -0.85999762
3.60640344 -3.048517268 -0.871551243
3.51032708 -2.753740563 -0.8669154
3.412872136 -2.481787344 -0.862139547
3.319367487 -2.228257818 -0.858246772
2.966583001 -2.513537414 -0.868200471
2.935343054 -2.306244574 -0.869992408
